# .PCD v0.7 - Point Cloud Data file format
VERSION 0.7
FIELDS x y z
SIZE 4 4 4
TYPE F F F
COUNT 1 1 1
WIDTH 1478
HEIGHT 1
VIEWPOINT 0 0 0 1 0 0 0
POINTS 1478
DATA ascii
-0.2782892 -1.0856711 4.5781002
-0.28286037 -1.0828819 4.6532998
-0.2794016 -1.0492704 4.5963998
-0.27890316 -1.0270648 4.5882001
-0.28298196 -1.0214539 4.6553001
-0.2783986 -0.9846127 4.5798998
-0.28039852 -0.97124296 4.6128001
-0.28611857 -0.97019625 4.7069001
-0.279511 -0.92741257 4.5981998
-0.28191212 -0.91482621 4.6377001
-0.28211877 -0.89492863 4.6410999
-0.28283608 -0.87658352 4.6529002
-0.28027087 -0.84819967 4.6107001
-0.27927393 -0.82482177 4.5942998
-0.28385121 -0.81764597 4.6696
-0.28355336 -0.79611516 4.6647
-0.28501832 -0.77944857 4.6887999
-0.27911592 -0.74295777 4.5917001
-0.28439829 -0.73628408 4.6785998
-0.28569913 -0.7188226 4.6999998
-0.28133464 -0.68733037 4.6282001
-0.28501225 -0.67553604 4.6887002
-0.28260508 -0.64922678 4.6490998
-0.28668389 -0.63769597 4.7161999
-0.28689057 -0.61723959 4.7196002
-0.28429496 -0.59092826 4.6768999
-0.28414908 -0.56990874 4.6745
-0.28640425 -0.5535512 4.7115998
-0.28344393 -0.52716476 4.6629
-0.28755316 -0.51384288 4.7305002
-0.28486028 -0.48826271 4.6862001
-0.28425848 -0.46650696 4.6763
-0.28535268 -0.44749862 4.6943002
-0.28727353 -0.42956692 4.7259002
-0.28669605 -0.40780145 4.7164001
-0.28712761 -0.3874819 4.7234998
-0.28659877 -0.36587334 4.7147999
-0.28017968 -0.33725181 4.6092
-0.29016089 -0.32811162 4.7733998
-0.29492661 -0.31199864 4.8518
-0.29239789 -0.28800586 4.8102002
-0.28586328 -0.26072815 4.7027001
-0.28532225 -0.23943292 4.6938
-0.28584504 -0.21903169 4.7024002
-0.28329197 -0.19642159 4.6603999
-0.28220388 -0.17509271 4.6424999
-0.2796022 -0.15309373 4.5997
-0.28201544 -0.13385437 4.6394
-0.28044713 -0.11266361 4.6135998
-0.27475747 -0.090346359 4.52
-0.27418 -0.070167005 4.5105
-0.28107932 -0.051440191 4.6240001
-0.27507964 -0.030287139 4.5253
-0.27311623 -0.010159054 4.493
-0.25743923 0.009193033 4.2350998
-0.26146942 0.02839973 4.3014002
-0.26053327 0.047292579 4.2859998
-0.25086209 0.063826479 4.1269002
-0.24044926 0.078707434 3.9556
-0.26999176 0.10806184 4.4415998
-0.20804976 0.098438248 3.4226
-0.23215182 0.12676741 3.8190999
-0.21891849 0.13550185 3.6013999
-0.2111803 0.1461086 3.4741001
-0.20181301 0.15434113 3.3199999
-0.19330283 0.16192578 3.1800001
-0.16680576 0.15189093 2.7441001
-0.1669334 0.16417767 2.7462001
-0.17061101 0.1802332 2.8067
-0.1357922 0.15335077 2.2339001
-0.15090993 0.18142559 2.4826
-0.15646586 0.19951235 2.5739999
-0.13737266 0.1851816 2.2599001
-0.13847291 0.19676033 2.2780001
-0.13488038 0.20148924 2.2189
-0.12669237 0.19849434 2.0841999
-0.13013291 0.21337232 2.1408
-0.12104525 0.20729671 1.9913
-0.11924595 0.2129091 1.9617
-0.11446202 0.21271257 1.883
-0.11616406 0.22434469 1.911
-0.11899673 0.23849097 1.9576
-0.11156248 0.23172498 1.8353
-0.11461398 0.24641933 1.8855
-0.11463222 0.25481594 1.8858
-0.11142874 0.25581878 1.8331
-0.11007927 0.26074615 1.8109
-0.10677245 0.26069763 1.7565
-0.10439568 0.26250556 1.7174
-0.10548985 0.27294776 1.7354
-0.10564182 0.28104293 1.7379
-0.10456588 0.28580409 1.7201999
-0.10319818 0.28958964 1.6977
-0.10090043 0.29049808 1.6599
-0.10082748 0.29763901 1.6587
-0.099514477 0.30101833 1.6371
-0.095283702 0.29516757 1.5675
-0.099143684 0.31435314 1.631
-0.096736513 0.31377345 1.5914
-0.098207556 0.32570487 1.6156
-0.090688199 0.30737871 1.4919
-0.093210869 0.3227247 1.5334001
-0.091727659 0.32427689 1.5089999
-0.087223344 0.31471232 1.4349
-0.087812975 0.32324192 1.4446
-0.088457316 0.33206284 1.4552
-0.086506054 0.33104476 1.4231
-0.084597342 0.32990813 1.3917
-0.086135253 0.34218541 1.4170001
-0.083849661 0.33921871 1.3794
-0.081576221 0.33596882 1.342
-0.080755599 0.33847669 1.3285
-0.079260238 0.33798763 1.3039
-0.079065718 0.34292254 1.3006999
-0.079418279 0.35024178 1.3065
-0.079162978 0.35488734 1.3023
-0.076099306 0.34670106 1.2519
-0.075965576 0.35163015 1.2497
-0.074676894 0.3511095 1.2285
-0.075126722 0.35870168 1.2359
-0.072038732 0.34920979 1.1851
-0.073400363 0.36116168 1.2075
-0.072798572 0.36350811 1.1976
-0.071011432 0.35976148 1.1682
-0.06941881 0.35675395 1.142
-0.19822016 -1.1314982 3.5211
-0.21899863 -1.2328672 3.8901999
-0.20822941 -1.1558486 3.6989
-0.1800369 -0.98518318 3.1981001
-0.1821761 -0.98254752 3.2361
-0.22793265 -1.2113869 4.0489001
-0.20149653 -1.055025 3.5792999
-0.20620842 -1.0634627 3.6630001
-0.17732911 -0.90056562 3.1500001
-0.16903123 -0.84511799 3.0026
-0.18755791 -0.92298192 3.3317001
-0.25873724 -1.2528901 4.5960999
-0.25550029 -1.2171018 4.5386
-0.25731298 -1.20548 4.5707998
-0.25713846 -1.1844195 4.5676999
-0.25375512 -1.1488588 4.5075998
-0.25964922 -1.1551032 4.6122999
-0.25975618 -1.13513 4.6142001
-0.25542146 -1.0960796 4.5372
-0.25872034 -1.0898684 4.5957999
-0.25892866 -1.0703621 4.5995002
-0.26084268 -1.0577397 4.6335001
-0.26001516 -1.0339146 4.6188002
-0.25781399 -1.0048659 4.5797
-0.26029098 -0.99402916 4.6237001
-0.25908628 -0.96903217 4.6023002
-0.26135495 -0.95694256 4.6426001
-0.25985187 -0.93098253 4.6159
-0.26312262 -0.92198664 4.6739998
-0.26051053 -0.89232552 4.6276002
-0.25917634 -0.86735207 4.6039
-0.262205 -0.85684597 4.6577001
-0.25957039 -0.827802 4.6108999
-0.26165333 -0.81384635 4.6479001
-0.26301003 -0.79736102 4.6719999
-0.26319018 -0.77718782 4.6752
-0.2610566 -0.75033605 4.6373
-0.26197422 -0.73234981 4.6536002
-0.26256531 -0.71333206 4.6641002
-0.26233447 -0.69205296 4.6599998
-0.26316765 -0.67353332 4.6747999
-0.26339284 -0.65337431 4.6788001
-0.26222754 -0.62984008 4.6581001
-0.26212621 -0.60896105 4.6563001
-0.26194042 -0.58790845 4.6529999
-0.26151258 -0.56636089 4.6454
-0.26201361 -0.54681927 4.6543002
-0.26654536 -0.5352934 4.7347999
-0.26481709 -0.51097518 4.7041001
-0.2639783 -0.48857525 4.6891999
-0.26733911 -0.47374952 4.7488999
-0.26659039 -0.45143566 4.7356
-0.26378128 -0.42591289 4.6856999
-0.26347166 -0.40467143 4.6802001
-0.26601055 -0.38762957 4.7252998
-0.26558834 -0.36610618 4.7178001
-0.26656222 -0.3464638 4.7350998
-0.2658079 -0.32455793 4.7217002
-0.27023268 -0.30868688 4.8003001
-0.26431042 -0.28111434 4.6950998
-0.26427102 -0.26026797 4.6943998
-0.26553768 -0.24061126 4.7168999
-0.26621321 -0.22026603 4.7289
-0.26307759 -0.19696109 4.6732001
-0.25752127 -0.17252809 4.5745001
-0.27063799 -0.16001002 4.8074999
-0.26778385 -0.13724156 4.7568002
-0.26124799 -0.11332539 4.6406999
-0.26251462 -0.093208656 4.6631999
-0.26062313 -0.072019771 4.6296
-0.25019729 -0.049442206 4.4443998
-0.2524153 -0.030009385 4.4837999
-0.25809547 -0.010366396 4.5847001
-0.25229147 0.0097281048 4.4815998
-0.25168347 0.029518181 4.4707999
-0.23547053 0.046153851 4.1827998
-0.23313992 0.064050734 4.1413999
-0.20762706 0.073386788 3.6882
-0.21486095 0.092858344 3.8167
-0.23200841 0.11853374 4.1213002
-0.21088652 0.12434433 3.7460999
-0.20090543 0.13427529 3.5688
-0.19470173 0.14545673 3.4586
-0.17850004 0.14740509 3.1708
-0.17869145 0.16163045 3.1742001
-0.15711358 0.15448138 2.7909
-0.15671952 0.1664315 2.7839
-0.13764679 0.15701294 2.4451001
-0.13918927 0.16972996 2.4725001
-0.13855314 0.17986169 2.4612
-0.12423733 0.17105819 2.2068999
-0.1261007 0.18355095 2.24
-0.12549271 0.19254525 2.2291999
-0.12411911 0.20020886 2.2047999
-0.11458838 0.19385628 2.0355
-0.11609709 0.20554827 2.0623
-0.10872807 0.20106104 1.9313999
-0.11273065 0.21733725 2.0025001
-0.11210014 0.22494665 1.9913
-0.10580637 0.22064669 1.8795
-0.10719122 0.23197316 1.9040999
-0.10364464 0.2324573 1.8411
-0.10778232 0.25022244 1.9146
-0.10515898 0.25241077 1.868
-0.10161239 0.25189731 1.8049999
-0.10366716 0.26515216 1.8415
-0.10367841 0.27334294 1.8417
-0.09785752 0.26570016 1.7383
-0.099934801 0.27920762 1.7752
-0.097514123 0.28012118 1.7322
-0.096759766 0.28557149 1.7187999
-0.095797122 0.29027194 1.7017
-0.095814012 0.29786599 1.702
-0.09476693 0.30207124 1.6834
-0.090995163 0.29721218 1.6164
-0.091299154 0.3053925 1.6217999
-0.089289427 0.30569926 1.5861
-0.08938513 0.31306365 1.5878
-0.087713167 0.31411287 1.5581
-0.087876424 0.32161552 1.561
-0.082770467 0.30944446 1.4703
-0.082145602 0.31357515 1.4592
-0.082472108 0.32131407 1.465
-0.083372824 0.33138672 1.4809999
-0.080912739 0.32797822 1.4373
-0.080180898 0.33132392 1.4243
-0.078058586 0.32869914 1.3866
-0.07644292 0.32791358 1.3579
-0.075930633 0.33169362 1.3487999
-0.075598493 0.33619413 1.3429
-0.074900441 0.33898625 1.3305
-0.074303709 0.34213507 1.3199
-0.072986409 0.34181523 1.2965
-0.071804218 0.34193143 1.2755001
-0.070942901 0.34341475 1.2602
-0.071449555 0.35149211 1.2692
-0.070222326 0.35098302 1.2474
-0.069963366 0.35519651 1.2428
-0.069231533 0.35693124 1.2298
-0.068989463 0.36111435 1.2255
-0.067103587 0.35652569 1.192
-0.065628655 0.35385582 1.1658
-0.066405527 0.36327225 1.1796
-0.064913712 0.36022153 1.1531
-0.16222583 -1.0063331 3.1315999
-0.19611526 -1.1997812 3.7858
-0.15995167 -0.96485806 3.0876999
-0.17165913 -1.020794 3.3137
-0.16295625 -0.95510018 3.1457
-0.11091509 -0.64059383 2.1410999
-0.15525836 -0.88341731 2.9971001
-0.15116073 -0.84717011 2.918
-0.16019516 -0.88409811 3.0924001
-0.18606032 -1.0109273 3.5917001
-0.19824953 -1.060195 3.8269999
-0.24057248 -1.2659477 4.6440001
-0.23555797 -1.219408 4.5472002
-0.23704471 -1.2068251 4.5759001
-0.23788391 -1.1907465 4.5921001
-0.23630393 -1.1626219 4.5616002
-0.23394689 -1.1310109 4.5160999
-0.23809111 -1.1306772 4.5960999
-0.23761454 -1.108086 4.5869002
-0.23724155 -1.0860505 4.5797
-0.23684266 -1.0639625 4.572
-0.23786318 -1.0481976 4.5917001
-0.23975918 -1.0360411 4.6283002
-0.24094544 -1.0205542 4.6511998
-0.23794089 -0.98747212 4.5932002
-0.23898731 -0.97136927 4.6134
-0.24149457 -0.96090013 4.6617999
-0.2398317 -0.93376589 4.6297002
-0.24058801 -0.9161281 4.6443
-0.24046887 -0.8951022 4.6420002
-0.24185717 -0.87957889 4.6687999
-0.23957787 -0.8507936 4.6248002
-0.24390857 -0.84530634 4.7083998
-0.24011661 -0.81162256 4.6352
-0.24064501 -0.79282129 4.6454
-0.24181056 -0.77597427 4.6679001
-0.24258241 -0.75769812 4.6827998
-0.24491355 -0.74402684 4.7277999
-0.23871274 -0.70476735 4.6080999
-0.24091437 -0.69065696 4.6506
-0.24595998 -0.68407983 4.7480001
-0.24340609 -0.65615326 4.6987
-0.24111122 -0.62933975 4.6543999
-0.24310564 -0.61374772 4.6929002
-0.2422457 -0.59085244 4.6763
-0.24462864 -0.57573646 4.7223001
-0.24138577 -0.54745364 4.6596999
-0.24259798 -0.52944851 4.6831002
-0.24338536 -0.51034516 4.6982999
-0.24097654 -0.48467854 4.6518002
-0.24274303 -0.46746466 4.6859002
-0.24217837 -0.4456588 4.6750002
-0.24422458 -0.42853069 4.7145
-0.24321443 -0.40595111 4.6950002
-0.24206959 -0.38333106 4.6729002
-0.24398109 -0.36548534 4.7097998
-0.24711516 -0.34903938 4.7702999
-0.24716181 -0.32796043 4.7712002
-0.24647284 -0.30596033 4.7579002
-0.24417277 -0.28221604 4.7135
-0.24870552 -0.26617813 4.8010001
-0.24334911 -0.23962675 4.6975999
-0.23895104 -0.21485358 4.6127
-0.24913548 -0.20269728 4.8092999
-0.24100761 -0.17546609 4.6524
-0.24322997 -0.15627563 4.6953001
-0.23862469 -0.13290226 4.6064
-0.23651113 -0.11149146 4.5655999
-0.23739694 -0.091599606 4.5826998
-0.23377076 -0.070201233 4.5127001
-0.23750573 -0.051004101 4.5847998
-0.23534556 -0.03040627 4.5430999
-0.23011866 -0.010044191 4.4422002
-0.23199393 0.0097211599 4.4784002
-0.22172141 0.028259097 4.2800999
-0.21672243 0.04616268 4.1835999
-0.21789318 0.065052934 4.2062001
-0.2189344 0.084093742 4.2262998
-0.20004192 0.093950741 3.8615999
-0.19738443 0.10958898 3.8103001
-0.18147577 0.11628175 3.5032001
-0.18441817 0.13394418 3.5599999
-0.17692229 0.14363568 3.4152999
-0.15254906 0.13689873 2.9447999
-0.15699892 0.15432341 3.0307
-0.15213981 0.16256274 2.9368999
-0.14981905 0.1729001 2.8921001
-0.14095557 0.17472994 2.721
-0.12887515 0.17078026 2.4877999
-0.12064885 0.17020068 2.329
-0.11977857 0.17922008 2.3122001
-0.1162767 0.18392789 2.2446001
-0.11927608 0.19887649 2.3025
-0.10744949 0.18834962 2.0741999
-0.10178225 0.18712299 1.9648
-0.10435168 0.2007741 2.0144
-0.10751683 0.21606204 2.0755
-0.10425325 0.21842258 2.0125
-0.09907297 0.21604504 1.9125
-0.1022174 0.23164673 1.9732
-0.097399734 0.22906147 1.8802
-0.091691054 0.22348021 1.77
-0.094830312 0.23924436 1.8306
-0.095467485 0.24901916 1.8429
-0.097016394 0.26135916 1.8728
-0.09497536 0.26398587 1.8334
-0.091665156 0.26262709 1.7695
-0.089629307 0.26446208 1.7302001
-0.092732295 0.28155112 1.7901
-0.085645668 0.26736194 1.6533
-0.090023004 0.28872827 1.7378
-0.086780146 0.28575164 1.6752
-0.086956277 0.29377073 1.6786
-0.085272685 0.29537809 1.6461
-0.085961662 0.30511871 1.6594
-0.084107123 0.30573148 1.6236
-0.080221906 0.29847163 1.5486
-0.078823231 0.30001113 1.5216
-0.079227291 0.30832696 1.5294
-0.078476146 0.31211743 1.5149
-0.081185438 0.32983837 1.5671999
-0.075911909 0.31490749 1.4654
-0.075414605 0.31929627 1.4558001
-0.074451067 0.32158607 1.4372
-0.072710492 0.32028821 1.4036
-0.076186463 0.34211761 1.4707
-0.073974483 0.33851317 1.428
-0.072606884 0.33846653 1.4016
-0.068763115 0.32643098 1.3274
-0.069783628 0.33724558 1.3471
-0.071379155 0.35106286 1.3779
-0.069110192 0.34581587 1.3341
-0.06722457 0.34213164 1.2977
-0.067343712 0.34849927 1.3
-0.065799989 0.34613985 1.2702
-0.06396617 0.34196538 1.2348
-0.06493488 0.35269937 1.2535
-0.06441167 0.35536799 1.2434
-0.063064799 0.35333231 1.2174
-0.063028537 0.35852125 1.2167
-0.062474247 0.36071303 1.206
-0.060780294 0.35613233 1.1733
-0.06110147 0.36324146 1.1795
-0.060184561 0.36293936 1.1618
-0.15745021 -1.069446 3.3280001
-0.19078064 -1.2779644 4.0324998
-0.14318129 -0.94570285 3.0264001
-0.14647885 -0.95376182 3.0961001
-0.14828612 -0.95163894 3.1343
-0.16118303 -1.0193074 3.4068999
-0.15190066 -0.94637746 3.2107
-0.13540812 -0.83094084 2.8620999
-0.15244474 -0.92120707 3.2221999
-0.15085982 -0.89749813 3.1887
-0.1599908 -0.93683344 3.3817
-0.2174308 -1.2528085 4.5957999
-0.21624802 -1.2257367 4.5707998
-0.21599726 -1.2040823 4.5654998
-0.2171706 -1.1902798 4.5903001
-0.21503687 -1.1584419 4.5451999
-0.21737875 -1.1506954 4.5946999
-0.21773833 -1.1322026 4.6023002
-0.21809314 -1.113618 4.6097999
-0.21647984 -1.0851018 4.5756998
-0.2178566 -1.0715954 4.6048002
-0.21829185 -1.0532882 4.6139998
-0.21436033 -1.0142382 4.5309
-0.21877442 -1.01463 4.6241999
-0.22150899 -1.0065628 4.6820002
-0.21770521 -0.96888483 4.6016002
-0.2175822 -0.94795567 4.599
-0.21904409 -0.93380618 4.6299
-0.21894 -0.9128536 4.6276999
-0.21749704 -0.88646352 4.5971999
-0.21782349 -0.8673898 4.6041002
-0.2179323 -0.84740859 4.6064
-0.21864669 -0.82970506 4.6215
-0.22024579 -0.8151421 4.6553001
-0.22120146 -0.79795837 4.6754999
-0.22193478 -0.77981436 4.691
-0.22128662 -0.75680822 4.6773
-0.22024105 -0.73260158 4.6552
-0.2224268 -0.7190367 4.7013998
-0.21608244 -0.67828614 4.5672998
-0.22158942 -0.6748156 4.6837001
-0.2209176 -0.65207559 4.6694999
-0.22020794 -0.62935328 4.6545
-0.22359538 -0.61808962 4.7261
-0.2196828 -0.58669555 4.6434002
-0.22227544 -0.57279825 4.6982002
-0.2224552 -0.55242336 4.7020001
-0.2220294 -0.53056771 4.6929998
-0.22236057 -0.51052982 4.6999998
-0.21979634 -0.48405337 4.6458001
-0.22247885 -0.46912065 4.7024999
-0.22154683 -0.44640231 4.6827998
-0.22574331 -0.4337118 4.7715001
-0.22458892 -0.41045588 4.7470999
-0.22101223 -0.38321623 4.6715002
-0.22399753 -0.36740986 4.7346001
-0.22213823 -0.3435517 4.6953001
-0.22246467 -0.32321751 4.7021999
-0.22527966 -0.30620471 4.7617002
-0.22214296 -0.28113234 4.6954002
-0.22241735 -0.260645 4.7012
-0.22353861 -0.24101932 4.7248998
-0.22332571 -0.21987011 4.7203999
-0.21678263 -0.19312149 4.5820999
-0.21936582 -0.17487398 4.6367002
-0.21612974 -0.15204863 4.5682998
-0.22049181 -0.13446315 4.6605
-0.2216036 -0.11438278 4.684
-0.21590739 -0.091217838 4.5636001
-0.21451646 -0.070535697 4.5342002
-0.21606824 -0.050806087 4.5669999
-0.20887227 -0.029548246 4.4148998
-0.2137311 -0.010214677 4.5176001
-0.20821939 0.0095533663 4.4011002
-0.20238124 0.028243251 4.2776999
-0.20994624 0.048965368 4.4376001
-0.19840713 0.064859606 4.1936998
-0.20532872 0.086356126 4.3400002
-0.18269524 0.093950741 3.8615999
-0.16326471 0.099252187 3.4509001
-0.16866286 0.11833308 3.5650001
-0.16977939 0.13502026 3.5885999
-0.15460211 0.13743234 3.2678001
-0.16202517 0.15920846 3.4247
-0.15466361 0.16646275 3.2691
-0.12309314 0.14401436 2.6018
-0.14405181 0.18202904 3.0448
-0.13778314 0.18701434 2.9123001
-0.11688596 0.16959952 2.4705999
-0.11077815 0.17111416 2.3415
-0.10985559 0.17997968 2.322
-0.097493283 0.16885868 2.0606999
-0.10438173 0.19056728 2.2063
-0.092241794 0.17704429 1.9497
-0.099693231 0.20068482 2.1071999
-0.098378003 0.20725264 2.0794001
-0.092279643 0.20304939 1.9505
-0.095600858 0.21931255 2.0207
-0.093050808 0.22217901 1.9668
-0.093741544 0.23260939 1.9814
-0.092435762 0.23802802 1.9538
-0.087751999 0.23418705 1.8548
-0.089899912 0.2483405 1.9002
-0.090855591 0.25949124 1.9204
-0.084799811 0.25013891 1.7924
-0.086924061 0.26454741 1.8372999
-0.084232084 0.26424485 1.7804
-0.084009714 0.27141675 1.7757
-0.084090151 0.27955362 1.7774
-0.082779638 0.28295115 1.7497
-0.079349607 0.27865982 1.6772
-0.078384474 0.28261301 1.6568
-0.079983577 0.29587087 1.6906
-0.079302303 0.30077925 1.6762
-0.07614667 0.29594347 1.6095001
-0.077594377 0.30883849 1.6401
-0.076544084 0.31182829 1.6179
-0.074410364 0.31010613 1.5728
-0.072991043 0.31102839 1.5427999
-0.074831426 0.32588035 1.5817
-0.071666338 0.31881008 1.5148
-0.071070224 0.32281563 1.5022
-0.068998016 0.31986651 1.4584
-0.069234565 0.32744858 1.4634
-0.06822212 0.32905075 1.442
-0.068804041 0.33830261 1.4543
-0.066022165 0.33080891 1.3954999
-0.065449707 0.33407146 1.3834
-0.066112056 0.34364522 1.3974
-0.063770175 0.33744588 1.3479
-0.06350524 0.34199268 1.3423001
-0.063349105 0.34708601 1.339
-0.061896671 0.34492627 1.3083
-0.061906133 0.35077795 1.3085001
-0.061485067 0.35415158 1.2996
-0.059824459 0.35019052 1.2645
-0.05984338 0.35590702 1.2649
-0.059062753 0.35679698 1.2484
-0.05702839 0.34984949 1.2054
-0.057600852 0.35875702 1.2175
-0.056583669 0.35772204 1.196
-0.057790097 0.3707625 1.2215
-0.055277895 0.35982308 1.1684
-0.054629739 0.36072135 1.1547
-0.16558833 -1.2427167 3.8671999
-0.13354714 -0.98842984 3.1189001
-0.17198117 -1.2550936 4.0165
-0.15492649 -1.1145961 3.6182001
-0.14556205 -1.0321592 3.3994999
-0.14587891 -1.0193074 3.4068999
-0.14280881 -0.98307478 3.3352001
-0.14552352 -0.98670059 3.3986001
-0.14326698 -0.95657218 3.3459001
-0.149921 -0.98548317 3.5013001
-0.14855507 -0.96112895 3.4693999
-0.19806202 -1.2609318 4.6255999
-0.19393858 -1.2146078 4.5293002
-0.19703008 -1.2135768 4.6015
-0.19475213 -1.179389 4.5482998
-0.19729556 -1.1743714 4.6076999
-0.19243565 -1.1255263 4.4942002
-0.19401564 -1.1146867 4.5310998
-0.19754392 -1.114512 4.6135001
-0.19437534 -1.0765173 4.5395002
-0.19638352 -1.0673136 4.5864
-0.19602385 -1.0450702 4.5780001
-0.19964202 -1.0436968 4.6624999
-0.19649486 -1.0069065 4.5890002
-0.19732982 -0.99076134 4.6085
-0.19932516 -0.98014939 4.6550999
-0.19926521 -0.95923048 4.6536999
-0.1988927 -0.93685174 4.645
-0.19897833 -0.91666067 4.6469998
-0.19769804 -0.89030075 4.6170998
-0.19699153 -0.86673033 4.6005998
-0.19719279 -0.84720623 4.6052999
-0.19795497 -0.82999229 4.6230998
-0.20024148 -0.81885415 4.6764998
-0.19842169 -0.79087561 4.6339998
-0.20117922 -0.78104448 4.6984
-0.19892266 -0.75169522 4.6457
-0.19956923 -0.7334829 4.6608
-0.1983446 -0.70845318 4.6321998
-0.199505 -0.69194901 4.6592999
-0.2009694 -0.67622757 4.6935
-0.2017958 -0.65812224 4.7128
-0.20005737 -0.63174659 4.6722002
-0.19859296 -0.60656774 4.638
-0.20066968 -0.59214121 4.6865001
-0.20053694 -0.57099384 4.6834002
-0.20112783 -0.55185938 4.6971998
-0.19950929 -0.52676904 4.6594
-0.20312318 -0.51528752 4.7438002
-0.20106362 -0.48925254 4.6957002
-0.20332016 -0.47369966 4.7484002
-0.20197135 -0.449653 4.7168999
-0.20382112 -0.43267557 4.7600999
-0.20066538 -0.40520748 4.6863999
-0.19978333 -0.38274863 4.6658001
-0.19957779 -0.36169839 4.6609998
-0.2052213 -0.35068569 4.7927999
-0.2075121 -0.33312261 4.8463001
-0.20620185 -0.30967721 4.8157001
-0.20444629 -0.28588033 4.7747002
-0.20349142 -0.26348361 4.7523999
-0.2046518 -0.24380451 4.7795
-0.2009908 -0.21864042 4.6939998
-0.20120063 -0.19804427 4.6989002
-0.1995564 -0.17577159 4.6605
-0.20516564 -0.1594775 4.7915001
-0.19784793 -0.13331196 4.6206002
-0.19309506 -0.11012395 4.5096002
-0.19607522 -0.091529645 4.5791998
-0.19857584 -0.072144218 4.6375999
-0.19662331 -0.051084202 4.592
-0.19002067 -0.029701514 4.4377999
-0.18865904 -0.0099623399 4.4060001
-0.19542439 0.00990697 4.5640001
-0.18810239 0.029004514 4.3930001
-0.17526963 0.045166291 4.0932999
-0.17537668 0.063345484 4.0957999
-0.18936126 0.087995693 4.4224
-0.18495522 0.10509121 4.3195
-0.16749378 0.11250537 3.9117
-0.1694463 0.13135469 3.9572999
-0.14716776 0.12931634 3.437
-0.13612053 0.13369772 3.1789999
-0.12725279 0.13815856 2.9719
-0.13091806 0.15568806 3.0574999
-0.11661236 0.15074515 2.7234001
-0.12159216 0.16976742 2.8397
-0.12195183 0.18289171 2.8480999
-0.10478584 0.16799319 2.4472001
-0.096393377 0.16451514 2.2512
-0.10609608 0.19205582 2.4777999
-0.093289025 0.17852788 2.1787
-0.083641984 0.16872327 1.9534
-0.08250729 0.17497392 1.9269
-0.088133655 0.19602771 2.0583
-0.086660698 0.20172097 2.0239
-0.088185042 0.21439642 2.0595
-0.086266764 0.21866134 2.0146999
-0.08408729 0.22184011 1.9638
-0.085633047 0.23478122 1.9999
-0.078884825 0.22444418 1.8423001
-0.07889767 0.23264669 1.8426
-0.079792581 0.2435441 1.8635
-0.078884825 0.24893808 1.8423001
-0.079077512 0.25773069 1.8468
-0.078696422 0.2646338 1.8379
-0.077977069 0.27028549 1.8211
-0.076435596 0.27285355 1.7851
-0.07262902 0.26678231 1.6962
-0.072817422 0.275011 1.7006
-0.074525885 0.28917685 1.7405
-0.072192267 0.28759387 1.686
-0.073639542 0.30098113 1.7198
-0.071614221 0.30011532 1.6725
-0.069340549 0.29776379 1.6194
-0.06913501 0.30403671 1.6145999
-0.068501301 0.30833974 1.5998
-0.067653492 0.31152576 1.58
-0.067674898 0.31862873 1.5805
-0.066364653 0.31932858 1.5499001
-0.064925939 0.31912577 1.5163
-0.065161444 0.32702759 1.5218
-0.062433895 0.3198007 1.4581
-0.061213564 0.31988552 1.4296
-0.061436221 0.32740778 1.4348
-0.061299201 0.33302206 1.4316
-0.059702065 0.33052444 1.3943
-0.059984669 0.33829749 1.4009
-0.058053546 0.33341506 1.3558
-0.056961671 0.3330397 1.3303
-0.056798961 0.33796713 1.3265001
-0.057231426 0.34646389 1.3365999
-0.055445887 0.34139341 1.2948999
-0.056443565 0.3533783 1.3182
-0.053990055 0.34360552 1.2609
-0.055261765 0.35741863 1.2905999
-0.054097101 0.35548496 1.2634
-0.052469991 0.35022351 1.2254
-0.052285869 0.35440618 1.2211
-0.051189713 0.35227436 1.1955
-0.051772047 0.36164024 1.2091
-0.050020766 0.35458431 1.1682
-0.050114967 0.360439 1.1704
-0.04978954 0.36325172 1.1628
-0.14999485 -1.2576272 3.9136
-0.13930175 -1.1518635 3.6345999
-0.11216653 -0.91451687 2.9266
-0.12353802 -0.99294609 3.2233
-0.14447583 -1.1445292 3.7695999
-0.12138407 -0.94756186 3.1671
-0.12326208 -0.94796914 3.2161
-0.11842526 -0.89707708 3.0899
-0.12056772 -0.89936489 3.1458001
-0.1252244 -0.91962099 3.2672999
-0.1433222 -1.0359548 3.7395
-0.17406777 -1.2380608 4.5416999
-0.17584996 -1.2304028 4.5882001
-0.17511408 -1.2050053 4.5689998
-0.17716455 -1.1986294 4.6224999
-0.17372283 -1.155256 4.5327001
-0.17512941 -1.1443594 4.5693998
-0.1765475 -1.1332111 4.6064
-0.17754015 -1.1190535 4.6322999
-0.17437437 -1.0789361 4.5496998
-0.17426324 -1.0580981 4.5468001
-0.17534788 -1.0444081 4.5750999
-0.177498 -1.0366902 4.6311998
-0.17610292 -1.0081791 4.5948
-0.17809589 -0.9989953 4.6468
-0.17438206 -0.95799911 4.5499001
-0.17634054 -0.94836783 4.6009998
-0.17823769 -0.93796098 4.6504998
-0.17801541 -0.91620702 4.6447001
-0.17783527 -0.8947165 4.6399999
-0.17821471 -0.87601829 4.6499
-0.17952548 -0.86170262 4.6841002
-0.17860948 -0.83665299 4.6602001
-0.17729487 -0.8099941 4.6258998
-0.17857498 -0.79519355 4.6592999
-0.17843318 -0.7739296 4.6556001
-0.1800084 -0.75994724 4.6967001
-0.17859799 -0.73334128 4.6599002
-0.17943732 -0.71603906 4.6817999
-0.17844851 -0.69145894 4.6560001
-0.18060628 -0.67893618 4.7122998
-0.18069828 -0.6583876 4.7147002
-0.17839485 -0.62936682 4.6546001
-0.17964046 -0.61298913 4.6870999
-0.18006971 -0.5936321 4.6982999
-0.17889309 -0.56906754 4.6676002
-0.17944881 -0.55008537 4.6820998
-0.18143798 -0.53520298 4.7340002
-0.18056795 -0.51175725 4.7112999
-0.18071744 -0.49128425 4.7151999
-0.18105854 -0.47127548 4.7241001
-0.18011954 -0.44800386 4.6996002
-0.18042232 -0.42789441 4.7075
-0.18203971 -0.41068071 4.7497001
-0.18156445 -0.38861397 4.7372999
-0.18191706 -0.36833331 4.7465
-0.18049514 -0.34458339 4.7094002
-0.18365325 -0.3293764 4.7918
-0.17992407 -0.30188334 4.6945
-0.17898124 -0.27960554 4.6698999
-0.18267974 -0.26425982 4.7663999
-0.17765515 -0.23644881 4.6353002
-0.18024218 -0.21905032 4.7027998
-0.18191706 -0.20005046 4.7465
-0.17618723 -0.17337668 4.5970001
-0.17768198 -0.15430193 4.6360002
-0.17449702 -0.1313587 4.5528998
-0.17494161 -0.1114646 4.5644999
-0.17615657 -0.091869451 4.5962
-0.17534788 -0.071171947 4.5750999
-0.17763214 -0.051559221 4.6346998
-0.17012781 -0.029708877 4.4389
-0.16520667 -0.0097464062 4.3105001
-0.17197515 0.0097400444 4.4871001
-0.16187993 0.02788672 4.2237
-0.15754519 0.045357183 4.1106
-0.16503038 0.066594891 4.3059001
-0.13872685 0.072021805 3.6196001
-0.15030913 0.095415376 3.9217999
-0.15087637 0.11322153 3.9366
-0.13127616 0.11369269 3.4252
-0.13904878 0.13650267 3.628
-0.1189465 0.13052244 3.1034999
-0.11751308 0.14253776 3.0660999
-0.11897333 0.15806603 3.1041999
-0.10247758 0.14799969 2.6738
-0.11335466 0.17681593 2.9576001
-0.11350413 0.19017373 2.9614999
-0.089335397 0.16000953 2.3309
-0.086012483 0.16400358 2.2442
-0.090523526 0.18307236 2.3619001
-0.076484501 0.16352423 1.9956
-0.083333455 0.18780331 2.1743
-0.086637206 0.20526676 2.2605
-0.077036403 0.19142772 2.01
-0.078228362 0.20343529 2.0411
-0.079619609 0.21625982 2.0774
-0.077063233 0.21822722 2.0107
-0.074947603 0.22090252 1.9555
-0.075008929 0.22975665 1.9571
-0.074288391 0.23613968 1.9383
-0.072582856 0.2391112 1.8938
-0.07318458 0.24955593 1.9095
-0.071961962 0.25370795 1.8776
-0.06870421 0.25016683 1.7926
-0.071019135 0.266808 1.853
-0.071371734 0.27638552 1.8622
-0.065856539 0.26264313 1.7183
-0.067757539 0.27805945 1.7679
-0.066212982 0.27937728 1.7276
-0.065074682 0.28209907 1.6979001
-0.064787231 0.28834441 1.6904
-0.064423129 0.29417327 1.6809
-0.064480618 0.30189177 1.6824
-0.062131196 0.29807636 1.6210999
-0.061452821 0.30192772 1.6034
-0.060368177 0.30357915 1.5750999
-0.059160888 0.30434883 1.5436
-0.058781456 0.30919385 1.5337
-0.057873119 0.3111079 1.51
-0.058363698 0.32049379 1.5228
-0.05619058 0.3150579 1.4661
-0.055673175 0.3185944 1.4526
-0.055623349 0.3247411 1.4513
-0.054738004 0.32590172 1.4282
-0.054251257 0.32927686 1.4155
-0.055017788 0.34029108 1.4355
-0.052331094 0.32972473 1.3654
-0.053837333 0.34544042 1.4047
-0.052097306 0.34029984 1.3593
-0.051495578 0.3423239 1.3436
-0.049805377 0.3368471 1.2995
-0.050430097 0.34690356 1.3158
-0.049839869 0.34860653 1.3004
-0.049870532 0.35458761 1.3012
-0.047743406 0.34498402 1.2457
-0.048134338 0.35337469 1.2559
-0.047758736 0.35613963 1.2460999
-0.047168508 0.35719246 1.2307
-0.046950046 0.36096701 1.225
-0.046022542 0.35915771 1.2007999
-0.045397818 0.35953185 1.1845
-0.045700599 0.36721417 1.1924
-0.043937575 0.35812846 1.1464
-0.11999395 -1.1396605 3.5465
-0.11440112 -1.0715569 3.3812001
-0.11717216 -1.0821648 3.4631
-0.11047971 -1.0058843 3.2653
-0.13152812 -1.1802958 3.8873999
-0.095007196 -0.84012306 2.8080001
-0.118309 -1.030678 3.4967
-0.12525859 -1.0748144 3.7021
-0.11859321 -1.0020865 3.5051
-0.11417443 -0.94979376 3.3745
-0.134333 -1.0998935 3.9703
-0.15016416 -1.2098469 4.4382
-0.15344948 -1.2162168 4.5352998
-0.15523255 -1.2100163 4.5879998
-0.15266789 -1.1700282 4.5121999
-0.15450512 -1.1638708 4.5665002
-0.15630172 -1.1569314 4.6195998
-0.15519196 -1.1283895 4.5868001
-0.15680248 -1.1195608 4.6343999
-0.15584157 -1.0922873 4.6059999
-0.15345286 -1.0554452 4.5353999
-0.1557942 -1.0511423 4.6046
-0.15436639 -1.0212895 4.5623999
-0.15711036 -1.0188648 4.6434999
-0.15484007 -0.98386025 4.5763998
-0.15670097 -0.97515929 4.6314001
-0.15594308 -0.95001692 4.6090002
-0.15803406 -0.9420554 4.6708002
-0.1560006 -0.90950024 4.6107001
-0.15772277 -0.89888161 4.6616001
-0.15750962 -0.87703562 4.6553001
-0.15592617 -0.84779495 4.6085
-0.15530023 -0.82404983 4.5900002
-0.15794946 -0.8174184 4.6683002
-0.15930621 -0.80357331 4.7083998
-0.15768895 -0.77476078 4.6606002
-0.15567918 -0.74449492 4.6012001
-0.15865321 -0.7379365 4.6890998
-0.15568593 -0.70374262 4.6013999
-0.15636262 -0.68632048 4.6213999
-0.15829796 -0.67408079 4.6785998
-0.15597014 -0.64373875 4.6097999
-0.15877502 -0.63451844 4.6926999
-0.15828441 -0.61182517 4.6781998
-0.15952615 -0.59572959 4.7149
-0.15746225 -0.56739724 4.6539001
-0.16003366 -0.55570126 4.7298999
-0.15939081 -0.5325914 4.7108998
-0.15911338 -0.51082313 4.7027001
-0.16042614 -0.49402449 4.7414999
-0.15906262 -0.46899098 4.7012
-0.15854158 -0.44668832 4.6858001
-0.16103178 -0.43261194 4.7593999
-0.15982389 -0.40843263 4.7237
-0.16053103 -0.38921279 4.7445998
-0.1591709 -0.36506632 4.7044001
-0.15937728 -0.34466383 4.7104998
-0.16093029 -0.3269431 4.7564001
-0.15914042 -0.30246207 4.7034998
-0.15713404 -0.27806675 4.6441998
-0.15936036 -0.2611329 4.71
-0.15884268 -0.23947881 4.6946998
-0.15945511 -0.21951611 4.7128
-0.15940434 -0.19856687 4.7112999
-0.15898141 -0.17721608 4.6988001
-0.15924533 -0.15665174 4.7066002
-0.15612578 -0.13313307 4.6143999
-0.15502279 -0.11188707 4.5818
-0.15139911 -0.08944089 4.4747
-0.15114874 -0.06949497 4.4672999
-0.14892243 -0.048964966 4.4015002
-0.14701755 -0.029081758 4.3452001
-0.14776868 -0.0098750619 4.3674002
-0.1465168 0.0093998993 4.3304
-0.14873295 0.029023658 4.3958998
-0.13920854 0.045399114 4.1143999
-0.13039805 0.059605818 3.8540001
-0.13577434 0.079847574 4.0128999
-0.14445965 0.10387717 4.2695999
-0.13363263 0.11359542 3.9496
-0.12996159 0.12749767 3.8411
-0.11888757 0.13220592 3.5137999
-0.10775941 0.13394585 3.1849
-0.10392596 0.14279345 3.0716
-0.10758685 0.1619156 3.1798
-0.092134647 0.15072854 2.7230999
-0.092442542 0.16334069 2.7321999
-0.083902724 0.1592412 2.4798
-0.083303854 0.16901603 2.4621
-0.080427922 0.17371577 2.3771
-0.074527189 0.17073265 2.2026999
-0.078303121 0.18963927 2.3143001
-0.070974573 0.18118706 2.0977001
-0.072574943 0.19477868 2.145
-0.07427682 0.20907527 2.1953001
-0.070115171 0.20654497 2.0723
-0.066812932 0.20556863 1.9747
-0.066528723 0.21340835 1.9663
-0.067516685 0.2254211 1.9955
-0.066102408 0.2293575 1.9536999
-0.064870834 0.23358129 1.9173
-0.063612193 0.23738144 1.8801
-0.065104291 0.25147709 1.9242001
-0.063108057 0.2520324 1.8652
-0.063595273 0.26230812 1.8796
-0.062671594 0.26670721 1.8523
-0.062011819 0.27202201 1.8328
-0.058408447 0.26386595 1.7263
-0.059883632 0.27837402 1.7699
-0.058696039 0.28054163 1.7348
-0.057975367 0.28469095 1.7135
-0.057681009 0.29080072 1.7048
-0.05580996 0.28867799 1.6495
-0.054527637 0.28918737 1.6116
-0.056188907 0.30535772 1.6607
-0.056919731 0.31678495 1.6823
-0.053147186 0.30275038 1.5707999
-0.052406214 0.30539382 1.5489
-0.052981399 0.31568536 1.5659
-0.052940797 0.32237783 1.5647
-0.051367495 0.31952566 1.5182
-0.051655088 0.32808056 1.5267
-0.050003968 0.32414338 1.4779
-0.049198706 0.32536763 1.4541
-0.049337424 0.33274743 1.4582
-0.048200589 0.33139372 1.4246
-0.046904728 0.32862803 1.3863
-0.04720924 0.33694515 1.3953
-0.045311127 0.32933283 1.3392
-0.045595333 0.33737075 1.3476
-0.044966012 0.33860406 1.329
-0.044735935 0.34273124 1.3221999
-0.045534432 0.35481295 1.3458
-0.043785192 0.34691766 1.2941
-0.042496096 0.34227023 1.256
-0.042482562 0.34772575 1.2556
-0.041961513 0.34895715 1.2402
-0.04101415 0.34645092 1.2122
-0.040902492 0.3508653 1.2089
-0.041105501 0.35799089 1.2149
-0.040276553 0.35604712 1.1904
-0.040794224 0.36596671 1.2057
-0.039779186 0.36207119 1.1756999
-0.039393473 0.36372033 1.1643
-0.098302826 -1.0765798 3.3501999
-0.093097493 -1.0055116 3.1728001
-0.10376344 -1.1050386 3.5362999
-0.095213071 -0.99959999 3.2449
-0.094423763 -0.97705197 3.2179999
-0.09702643 -0.98932868 3.3067
-0.11116065 -1.1166588 3.7883999
-0.097413749 -0.96385199 3.3199
-0.084470823 -0.82303113 2.8787999
-0.095782317 -0.91877669 3.2643001
-0.096049331 -0.90683103 3.2734001
-0.12363116 -1.1485667 4.2133999
-0.13565272 -1.2397618 4.6230998
-0.0028520788 -0.025635045 0.097199999
-0.13252777 -1.1711692 4.5166001
-0.14107521 -1.2253966 4.8079
-0.14097545 -1.2032378 4.8045001
-0.13326426 -1.1172944 4.5416999
-0.0019835446 -0.016330551 0.067599997
-0.0096507072 -0.077996813 0.32890001
-0.0015170007 -0.012031246 0.0517
-0.13534464 -1.0529686 4.6125998
-0.0041695517 -0.031808969 0.14210001
-0.1384872 -1.0355843 4.7196999
-0.13298845 -0.97437948 4.5323
-0.0023239162 -0.016675867 0.0792
-0.13812336 -0.97027874 4.7073002
-0.13785927 -0.9476018 4.6982999
-0.002975317 -0.020002022 0.1014
-0.14321719 -0.94116849 4.8808999
-0.14083166 -0.90422106 4.7996001
-0.12787995 -0.80174893 4.3582001
-0.001543409 -0.0094433594 0.0526
-0.13881584 -0.82837957 4.7308998
-0.13621317 -0.79227513 4.6422
-0.13635109 -0.77248335 4.6469002
-0.13661811 -0.75336182 4.6560001
-0.13735458 -0.73667753 4.6810999
-0.13737807 -0.71605438 4.6819
-0.13851948 -0.70108235 4.7207999
-0.13682351 -0.67183322 4.6630001
-0.13634227 -0.64887768 4.6465998
-0.13845493 -0.63802046 4.7185998
-0.13747196 -0.61272758 4.6851001
-0.13796197 -0.59407437 4.7017999
-0.1385811 -0.5758096 4.7228999
-0.13800894 -0.55258787 4.7034001
-0.13843733 -0.5333941 4.7179999
-0.13865152 -0.51327795 4.7252998
-0.13823193 -0.49084663 4.711
-0.13888627 -0.47219327 4.7333002
-0.13876303 -0.45081604 4.7291002
-0.13769202 -0.42654005 4.6925998
-0.13769791 -0.40576088 4.6928
-0.13750717 -0.38443029 4.6862998
-0.13700835 -0.36234251 4.6693001
-0.13859577 -0.34560776 4.7234001
-0.1422665 -0.3332738 4.8484998
-0.13876009 -0.30410188 4.7290001
-0.13644499 -0.27842003 4.6501002
-0.13995139 -0.26443723 4.7695999
-0.13993084 -0.2432638 4.7688999
-0.13913861 -0.22087155 4.7419
-0.13747489 -0.19746685 4.6852002
-0.13514803 -0.17371233 4.6058998
-0.13186169 -0.14957234 4.4938998
-0.13600777 -0.1337332 4.6352
-0.13669147 -0.11376008 4.6585002
-0.13448784 -0.091613598 4.5833998
-0.1360606 -0.07213489 4.6370001
-0.13125725 -0.049763709 4.4733
-0.12741046 -0.029061677 4.3421998
-0.12619276 -0.0097242482 4.3007002
-0.12968156 0.009593524 4.4196
-0.12782419 0.028762203 4.3562999
-0.12125737 0.045598835 4.1325002
-0.12279784 0.064725049 4.1849999
-0.10972288 0.074405544 3.7393999
-0.11959071 0.09915968 4.0756998
-0.11882781 0.11647442 4.0496998
-0.10239315 0.11583032 3.4895999
-0.092047036 0.11802891 3.1370001
-0.088291205 0.12654811 3.0090001
-0.087346382 0.13838635 2.9768
-0.089573473 0.15544365 3.0527
-0.079356454 0.14969899 2.7045
-0.070855968 0.14436539 2.4147999
-0.071706899 0.15692945 2.4438
-0.069820181 0.16334577 2.3794999
-0.070515595 0.17562312 2.4031999
-0.066146523 0.17473221 2.2543001
-0.062915921 0.17570087 2.1442001
-0.061011598 0.17959777 2.0792999
-0.059438851 0.18394554 2.0257001
-0.063420609 0.20584671 2.1614001
-0.05855858 0.1989103 1.9957
-0.057082657 0.20251846 1.9454
-0.059347887 0.21951875 2.0225999
-0.057863165 0.22276643 1.972
-0.059438851 0.23781006 2.0257001
-0.057197094 0.23747981 1.9493001
-0.056991693 0.2452348 1.9423
-0.055374932 0.2466415 1.8872
-0.054394897 0.25049201 1.8538001
-0.052830946 0.25126931 1.8005
-0.05287496 0.25946468 1.802
-0.053775772 0.27200717 1.8327
-0.052830946 0.27520746 1.8005
-0.050630268 0.27139068 1.7255
-0.051269934 0.28256306 1.7473
-0.050618533 0.28661823 1.7251
-0.048887331 0.28419939 1.6661
-0.048156705 0.2872254 1.6411999
-0.049368545 0.30190971 1.6825
-0.048740622 0.30543131 1.6611
-0.046545811 0.29870769 1.5863
-0.046730667 0.30695203 1.5926
-0.046334546 0.31134829 1.5791
-0.046446048 0.31911257 1.5829
-0.044483043 0.31234407 1.516
-0.044973057 0.32257736 1.5326999
-0.042898554 0.31417686 1.462
-0.042167928 0.31519485 1.4371001
-0.042138584 0.32133996 1.4361
-0.042546444 0.33087626 1.45
-0.041674975 0.33039343 1.4203
-0.041302327 0.33367729 1.4076
-0.040947285 0.33699343 1.3954999
-0.040292952 0.33769402 1.3732001
-0.039667957 0.33844727 1.3519
-0.038720198 0.33620912 1.3196
-0.039418548 0.34822655 1.3434
-0.038740736 0.34808999 1.3203
-0.037784178 0.34520197 1.2877001
-0.037437938 0.34769315 1.2759
-0.0374262 0.35323685 1.2755001
-0.036716115 0.35208035 1.2513
-0.035762485 0.3483372 1.2187999
-0.035932671 0.35542199 1.2246
-0.035419181 0.35569248 1.2071
-0.034873415 0.35547882 1.1885
-0.034301236 0.35482714 1.169
-0.034491964 0.36200961 1.1755
-0.03411638 0.36322051 1.1627001
-0.091732316 -1.1862237 3.6914001
-0.079747029 -1.0170157 3.2091
-0.081479095 -1.0245739 3.2788
-0.083839871 -1.0393081 3.3738
-0.09750504 -1.1913173 3.9237001
-0.086886518 -1.0460849 3.4964001
-0.084968068 -1.0078343 3.4191999
-0.078427479 -0.91626757 3.1559999
-0.075703889 -0.870947 3.0464001
-0.087753788 -0.99392706 3.5313001
-0.081280291 -0.90611076 3.2708001
-0.091876447 -1.0078514 3.6972001
-0.089108124 -0.96159244 3.5857999
-0.092403278 -0.9806723 3.7184
-0.021699263 -0.22642361 0.8732
-0.09503492 -0.9747051 3.8243001
-0.10185633 -1.0265025 4.0988002
-0.10684626 -1.0577359 4.2996001
-0.0081658009 -0.079381943 0.32859999
-0.0057205339 -0.054590654 0.23019999
-0.11231332 -1.0517683 4.5195999
-0.030600633 -0.28110513 1.2314
-0.051862527 -0.46717319 2.0869999
-0.090681151 -0.80067611 3.6491001
-0.035801798 -0.30972984 1.4407001
-0.021254443 -0.18008675 0.85530001
-0.11211203 -0.92991996 4.5114999
-0.0081036752 -0.065771222 0.32609999
-0.017159117 -0.13620707 0.69050002
-0.017126812 -0.13289626 0.68919998
-0.014664149 -0.11117193 0.59009999
-0.0037971223 -0.028109593 0.15279999
-0.007400413 -0.053464498 0.2978
-0.11482568 -0.80908358 4.6206999
-0.11552895 -0.79343569 4.6490002
-0.1143759 -0.76511908 4.6026001
-0.11585697 -0.75436497 4.6622
-0.11355086 -0.71909899 4.5693998
-0.11306629 -0.69586617 4.5499001
-0.11687086 -0.69843888 4.7030001
-0.11449517 -0.66382247 4.6073999
-0.11370245 -0.63894892 4.5755
-0.11461694 -0.62364721 4.6122999
-0.11564326 -0.60860795 4.6536002
-0.11567307 -0.5881359 4.6547999
-0.11471386 -0.56280088 4.6162
-0.11581969 -0.54757112 4.6606998
-0.11604583 -0.5279448 4.6697998
-0.11630179 -0.50836819 4.6801
-0.11534256 -0.48360533 4.6415
-0.11677891 -0.46880141 4.6992998
-0.11607814 -0.44528702 4.6711001
-0.11501952 -0.4207136 4.6285
-0.11596879 -0.40350413 4.6666999
-0.11654781 -0.38473383 4.6900001
-0.11915957 -0.37210473 4.7951002
-0.11648072 -0.34296635 4.6873002
-0.1183246 -0.32729363 4.7614999
-0.11747224 -0.30398613 4.7272
-0.1172784 -0.28256929 4.7193999
-0.1162173 -0.25928667 4.6767001
-0.11571284 -0.23752514 4.6564002
-0.11833205 -0.22179845 4.7617998
-0.11617257 -0.19703273 4.6749001
-0.11452002 -0.17380662 4.6083999
-0.11513879 -0.15421204 4.6332998
-0.11447529 -0.13290803 4.6065998
-0.11532518 -0.11332784 4.6408
-0.10995006 -0.08843749 4.4245
-0.11097141 -0.069468528 4.4656
-0.11226362 -0.050256532 4.5176001
-0.10323552 -0.027804093 4.1543002
-0.10769366 -0.0097988639 4.3337002
-0.10394623 0.0090797246 4.1829
-0.10574041 0.028094035 4.2550998
-0.10160285 0.045114432 4.0886002
-0.099055693 0.061648872 3.9861
-0.098049261 0.078508459 3.9456
-0.096478723 0.094456792 3.8824
-0.080755949 0.093465425 3.2497001
-0.077736646 0.10383438 3.1282001
-0.072217397 0.10934135 2.9061
-0.066432253 0.11242973 2.6733
-0.061027315 0.11416595 2.4558001
-0.065241925 0.13368551 2.6254001
-0.066931739 0.14908458 2.6933999
-0.058181956 0.1399713 2.3413
-0.061422434 0.15872106 2.4717
-0.057722226 0.15945348 2.3227999
-0.058629259 0.17241496 2.3592999
-0.056169081 0.17519726 2.2602999
-0.052545916 0.17326719 2.1145
-0.05478989 0.19043772 2.2047999
-0.054839592 0.20039049 2.2068
-0.050657295 0.194142 2.0385001
-0.052103579 0.20897689 2.0967
-0.051380437 0.21523963 2.0676
-0.050600138 0.22099482 2.0362
-0.048465498 0.22031508 1.9503
-0.047811937 0.22587083 1.924
-0.046999332 0.23041375 1.8913
-0.048120081 0.24448988 1.9364001
-0.04790885 0.25196066 1.9279
-0.046944659 0.25526184 1.8891
-0.046477478 0.26101026 1.8703001
-0.043669395 0.25302845 1.7573
-0.04490694 0.26820764 1.8071001
-0.044596311 0.27430564 1.7946
-0.044988945 0.28474393 1.8104
-0.044285681 0.28819069 1.7821
-0.042595863 0.28479064 1.7141
-0.041293707 0.28344885 1.6617
-0.041992001 0.29573086 1.6898
-0.041783258 0.30171233 1.6813999
-0.041775804 0.30910873 1.6811
-0.039797723 0.30156994 1.6015
-0.040200293 0.31178972 1.6177
-0.03975796 0.31544939 1.5999
-0.038935415 0.3158668 1.5668
-0.03776497 0.31310642 1.5197001
-0.037190929 0.31497964 1.4966
-0.037598472 0.32513651 1.513
-0.035938472 0.31719071 1.4462
-0.036669072 0.33017844 1.4756
-0.035841554 0.32911918 1.4423
-0.035615418 0.33339426 1.4332
-0.034663651 0.33066669 1.3949
-0.034628861 0.33651048 1.3935
-0.034032457 0.33678412 1.3695
-0.033371441 0.33619413 1.3429
-0.034218833 0.35083356 1.377
-0.032628413 0.34034649 1.313
-0.03176114 0.33696419 1.2781
-0.032479316 0.35037583 1.307
-0.031979825 0.35069075 1.2869
-0.031604584 0.35221219 1.2718
-0.03119207 0.35317773 1.2552
-0.030379465 0.34939468 1.2225
-0.03038195 0.35484153 1.2226
-0.030138418 0.35737208 1.2128
-0.029638927 0.35673505 1.1927
-0.029554434 0.36098877 1.1892999
-0.029209018 0.36197883 1.1754
-0.028781593 0.36181474 1.1582
-0.073474713 -1.1597768 3.6091001
-0.066721909 -1.038661 3.2774
-0.059944667 -0.92011034 2.9445
-0.070125796 -1.0611181 3.4446001
-0.071308605 -1.0634929 3.5027001
-0.066561073 -0.97819883 3.2695
-0.070553318 -1.0215111 3.4656
-0.064861171 -0.92497736 3.1860001
-0.078938849 -1.1085534 3.8775001
-0.064885601 -0.89707595 3.1872001
-0.070309013 -0.95675188 3.4535999
-0.066416532 -0.8893255 3.2623999
-0.081137538 -1.0687788 3.9855001
-0.075144082 -0.9734723 3.6910999
-0.059181236 -0.75379461 2.9070001
-0.065478019 -0.81974322 3.2163
-0.085775129 -1.0551778 4.2133002
-0.073873736 -0.89268917 3.6287
-0.070714146 -0.83911502 3.4735
-0.064370535 -0.74982709 3.1619
-0.070718214 -0.80837411 3.4737
-0.082819119 -0.92866963 4.0681
-0.066797234 -0.7344715 3.2811
-0.068226375 -0.73533356 3.3513
-0.059301347 -0.62623167 2.9129
-0.072727568 -0.75218272 3.5724001
-0.054737043 -0.55420053 2.6887
-0.074755244 -0.74060702 3.6719999
-0.06889005 -0.66750336 3.3838999
-0.05884736 -0.55738527 2.8906
-0.066434853 -0.61478966 3.2632999
-0.07038027 -0.63597953 3.4570999
-0.06924428 -0.61064065 3.4013
-0.069282964 -0.59589958 3.4031999
-0.067811064 -0.56847811 3.3309
-0.079313442 -0.64763987 3.8959
-0.067591198 -0.53720713 3.3201001
-0.075156301 -0.58097297 3.6917
-0.084056899 -0.63147801 4.1289001
-0.074567951 -0.54395962 3.6628001
-0.089280806 -0.63185167 4.3855
-0.074891642 -0.51371461 3.6787
-0.064403109 -0.42774931 3.1635001
-0.066866443 -0.42955405 3.2844999
-0.076843992 -0.47692227 3.7746
-0.075594001 -0.45270833 3.7132001
-0.072127007 -0.4162443 3.5429001
-0.085424975 -0.47439066 4.1961002
-0.0082308128 -0.043916427 0.4043
-0.0047760294 -0.024443349 0.23459999
-0.092662297 -0.4540669 4.5516
-0.07582812 -0.3550685 3.7247
-0.0052015153 -0.023224009 0.25549999
-0.093389086 -0.39663884 4.5872998
-0.09165661 -0.36932805 4.5022001
-0.094018154 -0.35837707 4.6181998
-0.097153321 -0.3491784 4.7722001
-0.091279976 -0.30819836 4.4836998
-0.091330871 -0.28848845 4.4861999
-0.092745766 -0.2727679 4.5556998
-0.093724996 -0.25524491 4.6037998
-0.0075895302 -0.0190167 0.37279999
-0.088026747 -0.20140167 4.3239002
-0.089256383 -0.18478484 4.3843002
-0.093266934 -0.17278454 4.5812998
-0.092853665 -0.15180565 4.5609999
-0.080913596 -0.1146709 3.9744999
-0.080726303 -0.096832208 3.9653001
-0.081284113 -0.079806618 3.9927001
-0.082580924 -0.063102856 4.0563998
-0.071823671 -0.039247621 3.5280001
-0.086206719 -0.028340857 4.2344999
-0.072670572 -0.0080711683 3.5696001
-0.074979186 0.0079946034 3.6830001
-0.07616403 0.024701044 3.7412
-0.068676293 0.037222773 3.3734
-0.063900262 0.04854456 3.1387999
-0.064635195 0.063173287 3.1749001
-0.059629112 0.071261063 2.9289999
-0.060144175 0.084969349 2.9542999
-0.062049702 0.10116897 3.0479
-0.053336401 0.098573133 2.6199
-0.055066846 0.11375871 2.7049
-0.054299343 0.12399358 2.6672001
-0.054215875 0.1356052 2.6631
-0.04988569 0.13563409 2.4504001
-0.047623891 0.13985172 2.3392999
-0.050129987 0.15812385 2.4624
-0.049869403 0.16815794 2.4496
-0.047990344 0.17226881 2.3573
-0.044291262 0.16863212 2.1756001
-0.045241989 0.18210058 2.2223001
-0.045742799 0.19407408 2.2469001
-0.044755429 0.19962771 2.1984
-0.042851936 0.20046577 2.1048999
-0.042780682 0.20944534 2.1013999
-0.042169936 0.21563521 2.0713999
-0.040317342 0.21493867 1.9804
-0.041239571 0.22883265 2.0257001
-0.0411846 0.23749308 2.023
-0.040370274 0.24158542 1.983
-0.03782754 0.23460372 1.8581001
-0.040016044 0.25688773 1.9656
-0.037597489 0.24954613 1.8468
-0.03669766 0.25156236 1.8026
-0.037163861 0.26284838 1.8255
-0.036367856 0.26513538 1.7864
-0.03688699 0.27694997 1.8119
-0.036257923 0.28011984 1.781
-0.034674056 0.27543145 1.7032
-0.035455812 0.28935963 1.7416
-0.034525439 0.28928259 1.6959
-0.034372754 0.29548585 1.6884
-0.03438497 0.30307609 1.689
-0.031599969 0.28540751 1.5522
-0.033289701 0.30791581 1.6352
-0.032145567 0.30433083 1.579
-0.031803552 0.30801615 1.5622
-0.03202749 0.31715706 1.5732
-0.030637028 0.31005713 1.5049
-0.03127424 0.32331401 1.5362
-0.029871561 0.31531578 1.4673001
-0.030288903 0.32631472 1.4878
-0.030060893 0.3304022 1.4766001
-0.02948679 0.33051115 1.4484
-0.029610975 0.3383491 1.4545
-0.028485168 0.33168602 1.3992
-0.027626052 0.32769623 1.357
-0.027477438 0.33191493 1.3497
-0.027685091 0.34045005 1.3599
-0.027371574 0.34255317 1.3444999
-0.027159851 0.34581587 1.3341
-0.026557248 0.3439244 1.3045
-0.026231516 0.3454164 1.2885
-0.025889501 0.34654862 1.2717
-0.025712384 0.34977511 1.263
-0.025297076 0.34963241 1.2426
-0.025103675 0.35242423 1.2331001
-0.024857339 0.35437715 1.221
-0.024973381 0.36146793 1.2266999
-0.024224201 0.35589758 1.1899
-0.023725426 0.35373443 1.1654
-0.023460768 0.35489568 1.1524
-0.023658242 0.36303306 1.1621
-0.052764252 -1.0686747 3.3255999
-0.055166379 -1.1019175 3.477
-0.053517893 -1.0540411 3.3731
-0.065928347 -1.2800512 4.1553001
-0.05371622 -1.0279388 3.3856001
-0.054285809 -1.0236756 3.4215
-0.056459464 -1.048894 3.5585001
-0.050850801 -0.93049353 3.2049999
-0.0519646 -0.93635947 3.2751999
-0.052594483 -0.93301862 3.3148999
-0.059017077 -1.0304697 3.7197001
-0.051144324 -0.87872142 3.2235
-0.052640498 -0.88972378 3.3178
-0.060951151 -1.0131645 3.8415999
-0.051501315 -0.84169841 3.2460001
-0.053638477 -0.86164415 3.3807001
-0.05076354 -0.80128199 3.1995001
-0.052061386 -0.807226 3.2813001
-0.04879773 -0.74299181 3.0755999
-0.052667469 -0.78720099 3.3195
-0.048743788 -0.71493995 3.0722001
-0.052730933 -0.75869167 3.3234999
-0.051715504 -0.72963637 3.2595
-0.059380408 -0.82119161 3.7426
-0.05499661 -0.74520475 3.4663
-0.051955082 -0.68947977 3.2746
-0.055047385 -0.7151407 3.4695001
-0.04940699 -0.6280638 3.1140001
-0.051502898 -0.64032114 3.2460999
-0.054279462 -0.65967989 3.4210999
-0.050508093 -0.59973687 3.1833999
-0.051747236 -0.59999633 3.2614999
-0.049459349 -0.5596537 3.1173
-0.054414324 -0.60052222 3.4296
-0.053257689 -0.57288134 3.3566999
-0.047450703 -0.49716282 2.9907
-0.053356059 -0.54413235 3.3629
-0.054901414 -0.54455692 3.4603
-0.052759495 -0.50857466 3.3253
-0.046950918 -0.43946847 2.9591999
-0.049713206 -0.45143792 3.1333001
-0.0068811211 -0.060564339 0.4337
-0.064081527 -0.54611558 4.0388999
-0.048616856 -0.40074274 3.0641999
-0.052570686 -0.41864946 3.3134
-0.048886579 -0.37565574 3.0811999
-0.052862622 -0.39144281 3.3318
-0.052016962 -0.37065125 3.2785001
-0.048001252 -0.32862914 3.0253999
-0.055258401 -0.36287853 3.4828
-0.061427135 -0.3862302 3.8715999
-0.046479698 -0.27926362 2.9295001
-0.067487985 -0.38663658 4.2536001
-0.059150353 -0.32234854 3.7281001
-0.019450234 -0.10056401 1.2259001
-0.0036380934 -0.017793918 0.22930001
-0.068273351 -0.31485471 4.3031001
