# .PCD v0.7 - Point Cloud Data file format
VERSION 0.7
FIELDS x y z
SIZE 4 4 4
TYPE F F F
COUNT 1 1 1
WIDTH 1518
HEIGHT 1
VIEWPOINT 0 0 0 1 0 0 0
POINTS 1518
DATA ascii
-1.1157495 -0.9875164 4.2435002
-1.1390977 -0.98898154 4.3323002
-1.1164857 -0.95053077 4.2463002
-1.13213 -0.94476748 4.3058
-1.1285279 -0.92273986 4.2921
-1.1575292 -0.92694241 4.4024
-1.1278968 -0.88420206 4.2897
-1.1298689 -0.86670387 4.2972002
-1.1315778 -0.84894186 4.3037
-1.1465912 -0.84087926 4.3607998
-1.1382037 -0.81554341 4.3288999
-1.1451451 -0.80121541 4.3552999
-1.1406227 -0.77882582 4.3381
-1.1368102 -0.75706142 4.3235998
-1.1326822 -0.73522079 4.3079
-1.1409645 -0.72136563 4.3393998
-1.1434886 -0.70368779 4.349
-1.1410434 -0.68295056 4.3397002
-1.1476693 -0.66757214 4.3649001
-1.1496412 -0.6493417 4.3723998
-1.1481951 -0.62917185 4.3669
-1.1450926 -0.60817099 4.3551002
-1.168283 -0.60079604 4.4432998
-1.1510347 -0.57252508 4.3776999
-1.1489576 -0.55212605 4.3698001
-1.1504037 -0.5334307 4.3752999
-1.1594223 -0.51807016 4.4095998
-1.1497202 -0.49435619 4.3727002
-1.1569245 -0.4779537 4.4001002
-1.1542426 -0.45739076 4.3899002
-1.157608 -0.43921265 4.4026999
-1.1513766 -0.4174417 4.3790002
-1.149168 -0.39727148 4.3706002
-1.1486421 -0.37772906 4.3685999
-1.1540059 -0.36004195 4.3889999
-1.1483003 -0.338907 4.3673
-1.1583706 -0.32235456 4.4056001
-1.1481951 -0.30016983 4.3669
-1.0851442 -0.26539627 4.1271
-1.2019119 -0.27369598 4.5711999
-1.1643654 -0.24552035 4.4284
-1.1590805 -0.22486943 4.4082999
-1.1631823 -0.20605953 4.4239001
-1.1678888 -0.18720828 4.4418001
-1.1541899 -0.16555832 4.3896999
-1.1354692 -0.14373444 4.3185
-1.1309205 -0.12409674 4.3011999
-1.1510611 -0.10690541 4.3778
-1.1293693 -0.085855022 4.2953
-1.1012093 -0.065153189 4.1882
-1.0647143 -0.045047987 4.0493999
-1.0777032 -0.027432641 4.0988002
-1.1047851 -0.0095006255 4.2017999
-1.0442846 0.0086212773 3.9717
-0.99532682 0.024993531 3.7855
-0.93067193 0.039056655 3.5395999
-1.0172815 0.059837807 3.869
-0.9275431 0.070193201 3.5276999
-0.91747278 0.084895305 3.4893999
-0.9167366 0.10027897 3.4865999
-0.88126719 0.11125301 3.3517001
-0.84103864 0.12035035 3.1987
-0.8082248 0.12927757 3.0739
-0.78945154 0.1395811 3.0025001
-0.79323775 0.15362072 3.0169001
-0.7800386 0.16421224 2.9667001
-0.68964279 0.15680635 2.6229
-0.67902035 0.16583611 2.5825
-0.65128106 0.17003888 2.477
-0.66476947 0.18476529 2.5283
-0.60340124 0.17787912 2.2948999
-0.61641634 0.19210573 2.3443999
-0.58073658 0.19077457 2.2086999
-0.57747626 0.19943702 2.1963
-0.55470634 0.20092292 2.1097
-0.56619644 0.21462816 2.1533999
-0.54140204 0.21435477 2.0590999
-0.5434792 0.22433762 2.0669999
-0.53653783 0.23051581 2.0406001
-0.52325976 0.23363075 1.9901
-0.52444297 0.24299861 1.9946001
-0.5065636 0.24325253 1.9266
-0.51834297 0.25764576 1.9714
-0.48355713 0.24850568 1.8391
-0.50296146 0.26695532 1.9129
-0.48550284 0.26587209 1.8465
-0.46633512 0.2632356 1.7736
-0.48058602 0.27938029 1.8278
-0.45544979 0.27244446 1.7322
-0.46633512 0.28681612 1.7736
-0.45405623 0.28691727 1.7269
-0.44017348 0.28556401 1.6741
-0.45550233 0.30318624 1.7323999
-0.42510748 0.29012042 1.6168
-0.4368605 0.30550483 1.6615
-0.42481825 0.30424386 1.6157
-0.41940188 0.3074339 1.5951
-0.41243422 0.30927804 1.5686001
-0.40057597 0.30713752 1.5235
-0.39857772 0.31232348 1.5159
-0.39061087 0.31266454 1.4856
-0.3963165 0.32391161 1.5073
-0.38119796 0.31798029 1.4498
-0.37699103 0.32082531 1.4338
-0.38422164 0.33345482 1.4613
-0.37241602 0.32948619 1.4164
-0.36189878 0.32628119 1.3764
-0.36100483 0.33156002 1.373
-0.34309921 0.32089785 1.3049001
-0.35232809 0.33546811 1.34
-0.34123236 0.33065489 1.2977999
-0.33852419 0.33373657 1.2875
-0.33834013 0.3392579 1.2868
-0.3315565 0.33804432 1.261
-0.32905865 0.34104395 1.2515
-0.32227501 0.33944523 1.2257
-0.31514958 0.33725208 1.1986001
-0.31220475 0.33936298 1.1874
-0.31751597 0.35048801 1.2076
-0.31467628 0.35265741 1.1968
-0.29989955 0.34115198 1.1406
-0.29932109 0.34553909 1.1384
-0.30039912 0.35184687 1.1425
-0.2915909 0.34644493 1.109
-1.1176724 -1.3897333 4.3246999
-1.0986254 -1.3472106 4.2509999
-1.1115475 -1.3439955 4.3010001
-1.0777694 -1.2846719 4.1703
-1.0861429 -1.2760276 4.2027001
-1.0965321 -1.2694294 4.2428999
-1.0959893 -1.250007 4.2407999
-1.0956017 -1.2307773 4.2392998
-1.114261 -1.2326313 4.3115001
-1.1093248 -1.2081478 4.2923999
-1.1022694 -1.1815619 4.2651
-1.1018817 -1.1622511 4.2635999
-1.1176208 -1.1596873 4.3245001
-1.1071539 -1.1298409 4.2839999
-1.1099193 -1.1136298 4.2947001
-1.1088597 -1.0935516 4.2905998
-1.1131498 -1.078694 4.3072
-1.1067921 -1.0535537 4.2825999
-1.1211615 -1.0480059 4.3382001
-1.112116 -1.0204799 4.3031998
-1.104673 -0.99470717 4.2744002
-1.117259 -0.98688132 4.3231001
-1.1242884 -0.97381103 4.3502998
-1.1286044 -0.95819587 4.3670001
-1.1189905 -0.9308449 4.3298001
-1.1168454 -0.90990859 4.3214998
-1.120386 -0.89358062 4.3351998
-1.1135116 -0.86900306 4.3085999
-1.1256582 -0.85917956 4.3555999
-1.1293023 -0.84259546 4.3697
-1.1163545 -0.81379139 4.3196001
-1.1245211 -0.80046117 4.3512001
-1.1195333 -0.77771276 4.3319001
-1.1259942 -0.76289231 4.3569002
-1.1170006 -0.73764431 4.3221002
-1.136151 -0.7308079 4.3962002
-1.1157342 -0.69854248 4.3172002
-1.1222469 -0.68337542 4.3424001
-1.1257358 -0.66619563 4.3558998
-1.1367193 -0.65320295 4.3983998
-1.1369779 -0.63385439 4.3994002
-1.1313181 -0.61129904 4.3775001
-1.1312922 -0.59188545 4.3773999
-1.1276481 -0.57064182 4.3632998
-1.1372621 -0.55600494 4.4004998
-1.1471345 -0.54116035 4.4387002
-1.1260459 -0.51190215 4.3571
-1.1267954 -0.49292037 4.3600001
-1.1342642 -0.47673708 4.3888998
-1.13597 -0.45797423 4.3955002
-1.133463 -0.4375267 4.3857999
-1.1209805 -0.41348556 4.3375001
-1.1314989 -0.39796227 4.3782001
-1.1262268 -0.37679526 4.3578
-1.1293797 -0.35848331 4.3699999
-1.129509 -0.33915532 4.3705001
-1.1224794 -0.31779608 4.3432999
-1.1197141 -0.29781213 4.3326001
-1.1214714 -0.27904835 4.3393998
-1.1821531 -0.27387559 4.5742002
-1.120231 -0.24031986 4.3346
-1.1207478 -0.22121197 4.3365998
-1.1379082 -0.20508602 4.4029999
-1.1572137 -0.18872136 4.4777002
-1.1226087 -0.1638272 4.3438001
-1.1237717 -0.14472628 4.3483
-1.1472896 -0.12808116 4.4393001
-1.149538 -0.10861968 4.448
-1.1256065 -0.087056309 4.3554001
-1.0994009 -0.066176802 4.2540002
-1.0742029 -0.046239432 4.1564999
-1.0586966 -0.027417246 4.0964999
-1.059937 -0.0092733866 4.1012998
-1.023368 0.0085954461 3.9598
-0.95353764 0.024360357 3.6896
-0.88608503 0.037831862 3.4286001
-0.97475547 0.058332969 3.7716999
-0.95072067 0.073197752 3.6787
-0.9779343 0.092062771 3.7839999
-0.88934135 0.098973207 3.4412
-0.87724632 0.11267035 3.3943999
-0.88592994 0.12897772 3.428
-0.8210358 0.1336094 3.1768999
-0.81488496 0.14658225 3.1531
-0.7237851 0.14260671 2.8006001
-0.73838693 0.15814568 2.8571
-0.78777462 0.18223231 3.0481999
-0.72843701 0.18099736 2.8185999
-0.63033342 0.16743028 2.4389999
-0.66842741 0.18901117 2.5864
-0.63061774 0.18913367 2.4401
-0.65609986 0.20802715 2.5387001
-0.61126065 0.20429215 2.3652
-0.55735022 0.19583203 2.1566
-0.55468827 0.20440863 2.1463001
-0.553913 0.21362151 2.1433001
-0.52982646 0.21341787 2.0501001
-0.52889603 0.2221127 2.0465
-0.50827259 0.22216772 1.9667
-0.49025935 0.22270112 1.897
-0.49501464 0.23334982 1.9154
-0.49519557 0.2419268 1.9161
-0.47968918 0.24257699 1.8561
-0.47984424 0.25088385 1.8566999
-0.45301825 0.24462646 1.7529
-0.49224934 0.27425215 1.9047
-0.45014957 0.25851589 1.7418
-0.44854724 0.26528746 1.7356
-0.45020127 0.27398583 1.742
-0.4395794 0.27505949 1.7009
-0.43477243 0.27950719 1.6823
-0.43443647 0.28674099 1.681
-0.42526186 0.28797793 1.6454999
-0.42340109 0.29397842 1.6382999
-0.41691425 0.29662377 1.6131999
-0.41789636 0.30448866 1.617
-0.4020282 0.29982081 1.5556
-0.39825496 0.3038362 1.541
-0.39463681 0.30784312 1.527
-0.39838418 0.3175979 1.5415
-0.37714049 0.30712935 1.4593
-0.3816115 0.31731433 1.4766001
-0.38959727 0.33063546 1.5075001
-0.36794004 0.31856534 1.4237
-0.36535564 0.32259294 1.4137
-0.36313307 0.32685757 1.4051
-0.3668029 0.33645082 1.4193
-0.36489046 0.34095383 1.4119
-0.34770423 0.33085749 1.3454
-0.34429285 0.33351541 1.3322001
-0.34449959 0.33962318 1.3329999
-0.33871055 0.33972439 1.3106
-0.33168101 0.33836153 1.2834001
-0.32454807 0.33665031 1.2558
-0.32173109 0.33924538 1.2449
-0.31601959 0.33864212 1.2228
-0.31041145 0.3379555 1.2011
-0.31390038 0.34713683 1.2146
-0.29609391 0.33252245 1.1457
-0.31054065 0.3540718 1.2016
-0.30358866 0.35135126 1.1747
-0.28730699 0.33743486 1.1117001
-0.28981385 0.34534886 1.1214
-0.28702268 0.34694478 1.1106
-1.0912873 -1.3809284 4.2972999
-1.0770154 -1.3440731 4.2410998
-1.0811548 -1.3303711 4.2574
-1.0677972 -1.2952998 4.2048001
-1.0598233 -1.2671313 4.1733999
-1.0605851 -1.2495335 4.1764002
-1.082196 -1.2561084 4.2614999
-1.0905001 -1.2467161 4.2941999
-1.0904493 -1.2276282 4.2940001
-1.0829071 -1.2002387 4.2642999
-1.0863099 -1.1850525 4.2776999
-1.0769138 -1.1560086 4.2406998
-1.0858021 -1.1466007 4.2757001
-1.0913128 -1.1333749 4.2974
-1.0991342 -1.1223164 4.3281999
-1.0887479 -1.0927106 4.2873001
-1.09403 -1.0789195 4.3081002
-1.0860306 -1.0520777 4.2765999
-1.0873511 -1.034381 4.2817998
-1.0964423 -1.0238949 4.3175998
-1.0972297 -1.0054817 4.3207002
-1.0904493 -0.98023838 4.2940001
-1.0974075 -0.96734184 4.3214002
-1.0894589 -0.94132262 4.2901001
-1.1025118 -0.93336016 4.3414998
-1.0918206 -0.90525532 4.2993999
-1.1011405 -0.89376616 4.3361001
-1.0892557 -0.86511046 4.2893
-1.1014198 -0.85555005 4.3372002
-1.1040101 -0.83829546 4.3474002
-1.1122888 -0.82517046 4.3800001
-1.0961123 -0.79404086 4.3162999
-1.1083781 -0.78358346 4.3646002
-1.0996929 -0.75825214 4.3304
-1.1112475 -0.74682617 4.3758998
-1.1114507 -0.72756624 4.3766999
-1.0997691 -0.70072675 4.3306999
-1.1069305 -0.68597209 4.3589001
-1.0986264 -0.66165328 4.3262
-1.1053814 -0.64643091 4.3527999
-1.1006072 -0.62443173 4.3340001
-1.1085304 -0.60958141 4.3652
-1.1135077 -0.59288609 4.3848
-1.1112729 -0.57230276 4.3759999
-1.1051021 -0.54983908 4.3516998
-1.1142187 -0.53493029 4.3875999
-1.1218879 -0.51903355 4.4177999
-1.1140919 -0.49598417 4.3871002
-1.1172154 -0.47787768 4.3994002
-1.1201864 -0.45959958 4.4110999
-1.1170377 -0.43881366 4.3987002
-1.1132537 -0.41789925 4.3838
-1.1139648 -0.39872581 4.3866
-1.1068289 -0.37685576 4.3585
-1.1164535 -0.36064899 4.3964
-1.1084542 -0.33872077 4.3649001
-1.129811 -0.32553008 4.4489999
-1.1238688 -0.30420473 4.4256001
-1.1033498 -0.27939561 4.3448
-1.1297604 -0.26636741 4.4488001
-1.1048989 -0.24122359 4.3509002
-1.1153108 -0.22403286 4.3919001
-1.103299 -0.20236585 4.3446002
-1.0862592 -0.18028355 4.2775002
-1.1079209 -0.16454379 4.3628001
-1.1193231 -0.14670332 4.4077001
-1.0991342 -0.12487573 4.3281999
-1.1212785 -0.1078236 4.4154
-1.0570298 -0.083198592 4.1623998
-1.0632007 -0.065129854 4.1866999
-1.0642166 -0.046619896 4.1907001
-1.033362 -0.027234532 4.0692
-1.0162206 -0.0090481834 4.0016999
-1.015281 0.0086783664 3.9979999
-0.97424304 0.025329595 3.8364
-0.86773759 0.037703864 3.4170001
-0.98937827 0.060255386 3.8959999
-0.98597544 0.077254906 3.8826001
-0.9586761 0.091846243 3.7751
-0.93447495 0.10583564 3.6798
-0.87088656 0.1138321 3.4294
-0.82743621 0.12259279 3.2583001
-0.82192552 0.13612017 3.2365999
-0.81618631 0.14941338 3.214
-0.77596104 0.15559132 3.0555999
-0.72999662 0.15911433 2.8745999
-0.74556357 0.1755186 2.9359
-0.72628897 0.18365587 2.8599999
-0.6248371 0.1689062 2.4605
-0.63994694 0.18415874 2.52
-0.60292149 0.18402573 2.3742001
-0.58847189 0.18988511 2.3173001
-0.60195643 0.20474128 2.3704
-0.5593695 0.20001817 2.2026999
-0.53140992 0.19929436 2.0926001
-0.53186703 0.20874766 2.0943999
-0.51388758 0.21065919 2.0236001
-0.51927125 0.22192819 2.0448
-0.48211876 0.21446352 1.8985
-0.49986967 0.23108323 1.9684
-0.4789952 0.22979243 1.8862
-0.4742972 0.23581581 1.8677
-0.47508442 0.24449816 1.8708
-0.4497405 0.23930377 1.771
-0.45766366 0.25150654 1.8022
-0.4458805 0.25281247 1.7558
-0.44915643 0.26250836 1.7687
-0.44496629 0.26782477 1.7522
-0.43303075 0.26819783 1.7052
-0.43635747 0.27787334 1.7183
-0.42993259 0.28128493 1.693
-0.41977474 0.28196481 1.653
-0.40486804 0.27901748 1.5943
-0.40804237 0.28832603 1.6068
-0.41081038 0.2974512 1.6177
-0.39836696 0.29539353 1.5687
-0.38406977 0.29149458 1.5124
-0.39577672 0.30728665 1.5585001
-0.38061607 0.30215803 1.4988
-0.38193658 0.3098717 1.5039999
-0.3786099 0.31378001 1.4909
-0.36870596 0.31200641 1.4519
-0.3664712 0.3165108 1.4431
-0.35379925 0.31174073 1.3932
-0.36956936 0.33208567 1.4553
-0.35910675 0.32895118 1.4141001
-0.35377386 0.33024001 1.3931
-0.34463176 0.3277204 1.3571
-0.33058849 0.3201355 1.3018
-0.33434689 0.32960993 1.3166
-0.32733795 0.32841283 1.289
-0.33150268 0.33837646 1.3054
-0.32675388 0.33923152 1.2867
-0.3131423 0.33056501 1.2331001
-0.31618968 0.33929989 1.2451
-0.3073777 0.33520806 1.2104
-0.30910456 0.34248561 1.2172
-0.29894665 0.33644778 1.1772
-0.29991165 0.34276775 1.181
-0.3021718 0.3506242 1.1899
-0.29384232 0.3460871 1.1571
-0.28823006 0.3445071 1.135
-0.29125208 0.3532019 1.1469001
-0.28767139 0.35387993 1.1328
-1.0566919 -1.3612299 4.2360001
-1.0582634 -1.3444535 4.2423
-1.045242 -1.309341 4.1901002
-1.0626788 -1.3123044 4.2600002
-1.0589619 -1.288901 4.2451
-1.0669694 -1.2796918 4.2772002
-1.0644999 -1.2578181 4.2673001
-1.0594858 -1.2330709 4.2472
-1.0795918 -1.2372913 4.3277998
-1.0617307 -1.1979588 4.2561998
-1.0670692 -1.1850249 4.2775998
-1.0567417 -1.1547819 4.2361999
-1.0524262 -1.1313689 4.2189002
-1.0720334 -1.1334013 4.2975001
-1.0697134 -1.1119442 4.2881999
-1.0653729 -1.0885053 4.2708001
-1.0801406 -1.0844041 4.3299999
-1.0646744 -1.049962 4.2680001
-1.0722579 -1.0383912 4.2983999
-1.0799161 -1.0266221 4.3291001
-1.0754509 -1.003271 4.3112001
-1.0697882 -0.97898275 4.2884998
-1.0785192 -0.96781194 4.3235002
-1.0812132 -0.9510209 4.3343
-1.0730561 -0.92478228 4.3016
-1.0719585 -0.90479219 4.2972002
-1.0740041 -0.88743818 4.3053999
-1.0769477 -0.87073767 4.3172002
-1.079941 -0.8539719 4.3291998
-1.0828347 -0.83702272 4.3407998
-1.085928 -0.82012147 4.3532
-1.0741038 -0.79210925 4.3058
-1.0774964 -0.77546859 4.3193998
-1.0835332 -0.76056343 4.3435998
-1.0791428 -0.73830992 4.3260002
-1.0840071 -0.72237968 4.3455
-1.0874995 -0.70538676 4.3594999
-1.0915407 -0.68861592 4.3757
-1.0934117 -0.67037094 4.3832002
-1.0885223 -0.64803481 4.3635998
-1.0888965 -0.62891251 4.3650999
-1.0982262 -0.6147902 4.4025002
-1.0894952 -0.59054685 4.3674998
-1.0933368 -0.57320523 4.3829002
-1.0869008 -0.55052137 4.3571
-1.0935115 -0.5344426 4.3836002
-1.0994983 -0.5178352 4.4075999
-1.0855289 -0.49197072 4.3516002
-1.0926633 -0.47579205 4.3801999
-1.0932869 -0.45664054 4.3827
-1.084132 -0.43355629 4.3460002
-1.0966046 -0.41906223 4.3959999
-1.0787936 -0.39309025 4.3246002
-1.101469 -0.38178426 4.4155002
-1.0980515 -0.36109197 4.4018002
-1.0940104 -0.34032711 4.3856001
-1.0920396 -0.32031313 4.3776999
-1.1159873 -0.307511 4.4737
-1.0687655 -0.27551156 4.2844
-1.1102997 -0.26649314 4.4509001
-1.1319773 -0.25158572 4.5377998
-1.1011946 -0.2251806 4.4144001
-1.1062336 -0.2065579 4.4345999
-1.0871253 -0.18367636 4.3579998
-1.0853293 -0.1640912 4.3508
-1.0756005 -0.14351144 4.3118
-1.1027412 -0.12754163 4.4205999
-1.0970536 -0.10739381 4.3978
-1.0646244 -0.085305348 4.2677999
-1.0286531 -0.064148247 4.1236
-1.0450423 -0.04660432 4.1893001
-0.99901778 -0.02680351 4.0047998
-1.0228407 -0.0092711253 4.1002998
-1.0113159 0.0088001415 4.0541
-1.0071251 0.026656026 4.0373001
-0.95947915 0.042440843 3.8462999
-0.95057362 0.058934595 3.8106
-0.9052726 0.072208837 3.6289999
-0.93286228 0.090982541 3.7395999
-0.87234449 0.10057808 3.497
-0.87902987 0.11696552 3.5237999
-0.8816492 0.13297723 3.5343001
-0.76138693 0.12836495 3.0522001
-0.79506332 0.14816749 3.1872001
-0.68203527 0.13922054 2.7341001
-0.65836191 0.14608452 2.6392
-0.75482619 0.18089913 3.0258999
-0.60999262 0.15702578 2.4453001
-0.63034815 0.17346437 2.5269001
-0.57906014 0.16963796 2.3213
-0.58759153 0.18257628 2.3555
-0.57983345 0.19046688 2.3243999
-0.55181968 0.19106826 2.2121
-0.56142372 0.20436779 2.2506001
-0.53133941 0.20285626 2.1300001
-0.52158564 0.20839882 2.0908999
-0.4961662 0.20705728 1.989
-0.49771285 0.21654496 1.9952
-0.49399593 0.22370403 1.9802999
-0.46248975 0.21765308 1.854
-0.45176321 0.22063094 1.811
-0.47244304 0.23912382 1.8939
-0.45964599 0.24081264 1.8426
-0.43679592 0.23660131 1.751
-0.43365276 0.24260291 1.7384
-0.44477844 0.25672892 1.783
-0.43729481 0.26017818 1.753
-0.43609744 0.26721337 1.7482001
-0.42524612 0.26811919 1.7047
-0.41928414 0.27180904 1.6808
-0.41706401 0.27777928 1.6719
-0.40030059 0.2737259 1.6047
-0.40399256 0.28342772 1.6195
-0.39511195 0.28421682 1.5839
-0.38610661 0.28459847 1.5477999
-0.38737884 0.2924183 1.5529
-0.38563266 0.29795125 1.5459
-0.37430739 0.29585087 1.5005
-0.36295718 0.29332796 1.455
-0.36318168 0.29996157 1.4559
-0.36667407 0.30936027 1.4699
-0.36370555 0.31331724 1.4579999
-0.35759392 0.31440526 1.4335001
-0.35280436 0.31646201 1.4143
-0.34699208 0.31741303 1.391
-0.34190318 0.3188321 1.3706
-0.34661788 0.32938659 1.3895
-0.34290099 0.3319464 1.3746001
-0.34190318 0.33705461 1.3706
-0.32795864 0.32913429 1.3147
-0.32948029 0.33651486 1.3207999
-0.31830472 0.33075562 1.276
-0.32064959 0.33888879 1.2854
-0.31014752 0.33329934 1.2433
-0.30954885 0.33815536 1.2409
-0.30760312 0.34149462 1.2331001
-0.30857596 0.34805673 1.237
-0.29814875 0.34159225 1.1952
-0.29784939 0.34654081 1.194
-0.29076487 0.34346378 1.1655999
-0.28916836 0.34671521 1.1592
-0.28056216 0.34138072 1.1247
-0.28295693 0.34932157 1.1343
-0.27564791 0.34519538 1.105
-1.0508178 -1.3784863 4.2897
-1.030535 -1.3332347 4.2069001
-1.0476087 -1.3363708 4.2765999
-1.0329355 -1.2989656 4.2167001
-1.0554967 -1.3082417 4.3088002
-1.0409213 -1.2713443 4.2493
-1.0537083 -1.2678987 4.3014998
-1.0538063 -1.2489517 4.3018999
-1.0504503 -1.2259699 4.2881999
-1.0540024 -1.2110469 4.3027
-1.0414112 -1.1777389 4.2512999
-1.0446448 -1.1624966 4.2645001
-1.0416073 -1.140272 4.2521
-1.0468494 -1.1270716 4.2735
-1.0507933 -1.1123073 4.2895999
-1.0489562 -1.0913854 4.2821002
-1.0479763 -1.0714062 4.2781
-1.0387657 -1.0431968 4.2405
-1.0444489 -1.0300086 4.2637
-1.0679897 -1.0339024 4.3597999
-1.0507933 -0.99824435 4.2895999
-1.069582 -0.99674308 4.3663001
-1.0441548 -0.95415705 4.2624998
-1.0469964 -0.93781191 4.2740998
-1.0520916 -0.92334187 4.2948999
-1.05704 -0.90856111 4.3151002
-1.0713948 -0.90151638 4.3737001
-1.0617677 -0.87420672 4.3344002
-1.0713948 -0.86274999 4.3737001
-1.066128 -0.839221 4.3522
-1.0593426 -0.81471455 4.3245001
-1.0624781 -0.79790407 4.3372998
-1.0518956 -0.77092642 4.2940998
-1.0608124 -0.75826967 4.3305001
-1.0716887 -0.74665552 4.3748999
-1.0736729 -0.72861356 4.3829999
-1.0722766 -0.70826685 4.3772998
-1.0588281 -0.68022799 4.3224001
-1.0611062 -0.66249442 4.3316998
-1.0689451 -0.64804965 4.3636999
-1.072987 -0.63108808 4.3801999
-1.0706598 -0.61034942 4.3706999
-1.072987 -0.59226406 4.3801999
-1.0793805 -0.57626551 4.4063001
-1.0719581 -0.55290937 4.3759999
-1.0759265 -0.53549111 4.3922
-1.0707823 -0.51355869 4.3712001
-1.0650992 -0.49156371 4.348
-1.0777148 -0.47788849 4.3994999
-1.0794785 -0.45914117 4.4067001
-1.0758286 -0.43812528 4.3917999
-1.0810462 -0.42069232 4.4130998
-1.0718358 -0.39771685 4.3755002
-1.0882237 -0.38411015 4.4424
-1.0816097 -0.36220762 4.4154
-1.0732075 -0.33997789 4.3811002
-1.0889586 -0.32526669 4.4454002
-1.0853821 -0.30456215 4.4308
-1.0971649 -0.28801903 4.4789
-1.0782537 -0.26354733 4.4017
-1.1042932 -0.24993354 4.5079999
-1.0867294 -0.22629771 4.4362998
-1.0841572 -0.20614801 4.4257998
-1.0976058 -0.1888478 4.4807
-1.1039748 -0.169971 4.5067
-1.0709783 -0.1455151 4.3720002
-1.069778 -0.12599805 4.3670998
-1.0374184 -0.10341825 4.2350001
-1.0444243 -0.085221395 4.2635999
-1.0030257 -0.063697115 4.0946002
-1.0280852 -0.046688866 4.1968999
-0.9521957 -0.026015764 3.8871
-0.98379594 -0.0090807425 4.0160999
-0.99072844 0.0087790862 4.0444002
-0.98178732 0.026461916 4.0079002
-0.91109091 0.0410395 3.7193
-0.93742448 0.059185144 3.8268001
-0.91968912 0.074704014 3.7544
-0.87655115 0.087058201 3.5783
-0.85754204 0.1006845 3.5007
-0.84524488 0.11453248 3.4505
-0.84063959 0.12911692 3.4317
-0.73324776 0.12588781 2.9933
-0.78951579 0.14983177 3.223
-0.75698471 0.15735315 3.0901999
-0.70032477 0.15824531 2.8589001
-0.711887 0.17373706 2.9061
-0.66392326 0.17404284 2.7103
-0.64349335 0.18032907 2.6269
-0.62274498 0.18578109 2.5422001
-0.60689586 0.19203258 2.4775
-0.57977849 0.19394125 2.3668001
-0.56503171 0.19923063 2.3066001
-0.5494765 0.20368673 2.2430999
-0.50930256 0.19800864 2.0790999
-0.50508922 0.2055084 2.0618999
-0.48583513 0.2064639 1.9833
-0.5007779 0.22187394 2.0443001
-0.46883473 0.21620318 1.9139
-0.44054151 0.21112584 1.7984
-0.46885923 0.23317926 1.914
-0.46065295 0.23743193 1.8805
-0.43287414 0.23094542 1.7671
-0.42684802 0.23545274 1.7424999
-0.43446639 0.24751526 1.7736
-0.42746046 0.25125742 1.745
-0.42905271 0.25995556 1.7515
-0.42366356 0.26435509 1.7295001
-0.4100191 0.26325917 1.6738
-0.40181285 0.26525965 1.6403
-0.39840785 0.27021962 1.6264
-0.39630115 0.27596048 1.6178
-0.38787442 0.27710986 1.5834
-0.38123596 0.27926427 1.5563
-0.36815491 0.2763426 1.5029
-0.37986413 0.29200405 1.5506999
-0.370727 0.29168731 1.5134
-0.36925724 0.29721135 1.5074
-0.37119246 0.30548441 1.5153
-0.35762152 0.30078572 1.4599
-0.35169342 0.30216244 1.4357001
-0.35098302 0.30790192 1.4328001
-0.3397882 0.30422848 1.3871
-0.34270325 0.31303853 1.399
-0.34446701 0.32088152 1.4062001
-0.3352809 0.31839013 1.3687
-0.33395806 0.32317579 1.3633
-0.33251277 0.32779282 1.3573999
-0.32673165 0.32800484 1.3338
-0.31948078 0.3265056 1.3042001
-0.32026464 0.3331008 1.3074
-0.30997622 0.32800797 1.2654001
-0.31534088 0.33938971 1.2873
-0.30639973 0.33530995 1.2508
-0.30233335 0.33632955 1.2342
-0.30306825 0.34263006 1.2372
-0.3008146 0.34552443 1.228
-0.28854191 0.33664784 1.1779
-0.28795403 0.34117147 1.1755
-0.28366718 0.34122431 1.158
-0.28633726 0.3496165 1.1689
-0.27773908 0.34414285 1.1338
-0.27367267 0.34405541 1.1172
-0.27658772 0.35272405 1.1291
-1.0160136 -1.3577272 4.2251
-1.0247909 -1.35057 4.2616
-1.0286144 -1.336652 4.2775002
-1.0220494 -1.3092853 4.2501998
-1.0303938 -1.3009852 4.2849002
-1.024863 -1.2751141 4.2618999
-1.0160617 -1.2454382 4.2252998
-1.0245985 -1.2370193 4.2607999
-1.0122383 -1.2034416 4.2094002
-1.0274842 -1.2026311 4.2728
-1.022891 -1.1784037 4.2536998
-1.0167351 -1.1525738 4.2280998
-1.0410948 -1.1610013 4.3294001
-1.0317405 -1.1315552 4.2905002
-1.0291674 -1.1097661 4.2797999
-1.0291674 -1.0907991 4.2797999
-1.0341692 -1.0770411 4.3006001
-1.0325822 -1.0563583 4.2940001
-1.0402532 -1.0450345 4.3259001
-1.0277007 -1.0134844 4.2737002
-1.0459522 -1.0122072 4.3495998
-1.0289991 -0.97683692 4.2790999
-1.040157 -0.96825957 4.3255
-1.0357804 -0.94509661 4.3073001
-1.0436198 -0.93301624 4.3399
-1.036093 -0.90719247 4.3085999
-1.0429705 -0.8939929 4.3372002
-1.0414314 -0.87348062 4.3308001
-1.0408783 -0.85383379 4.3284998
-1.0534549 -0.8447358 4.3807998
-1.0419844 -0.81633466 4.3330998
-1.0365258 -0.79295546 4.3104
-1.0362854 -0.7736733 4.3094001
-1.0473951 -0.76266462 4.3555999
-1.0456877 -0.74214989 4.3484998
-1.0506175 -0.72628623 4.369
-1.046289 -0.70401138 4.3509998
-1.0428743 -0.68249416 4.3368001
-1.0484532 -0.66682273 4.3600001
-1.0573505 -0.65299505 4.3969998
-1.0628333 -0.63679355 4.4197998
-1.0470104 -0.60801739 4.3540001
-1.0467459 -0.58857274 4.3529
-1.0618474 -0.57749486 4.4157
-1.0516274 -0.55255562 4.3731999
-1.0485253 -0.53160191 4.3603001
-1.0564609 -0.51615518 4.3933001
-1.0467459 -0.49211767 4.3529
-1.0642521 -0.48073444 4.4257002
-1.0670656 -0.46233982 4.4373999
-1.0535752 -0.43707779 4.3813
-1.0589617 -0.41979626 4.4036999
-1.0484291 -0.39629886 4.3599
-1.0512186 -0.37797982 4.3715
-1.0584328 -0.36106738 4.4015002
-1.0514591 -0.33931053 4.3724999
-1.0647811 -0.3239862 4.4278998
-1.0605007 -0.3031393 4.4101
-1.0929163 -0.29226318 4.5448999
-1.0743999 -0.26751098 4.4678998
-1.0583847 -0.24401787 4.4013
-1.045832 -0.22184962 4.3491001
-1.091738 -0.21146731 4.54
-1.0752176 -0.18845162 4.4713001
-1.0445335 -0.16382343 4.3436999
-1.0475395 -0.14498922 4.3562002
-1.0599958 -0.1271781 4.408
-1.0070922 -0.10227052 4.1880002
-1.0555711 -0.0877399 4.3895998
-1.0067796 -0.065129854 4.1866999
-0.99261582 -0.04592016 4.1278
-1.0246947 -0.028519558 4.2612
-0.96611595 -0.0090841344 4.0176001
-0.94120318 0.0084960293 3.914
-0.90948504 0.024971083 3.7821
-0.95560741 0.043848809 3.9739001
-0.90003455 0.057886004 3.7428
-0.91960883 0.076092876 3.8241999
-0.83125985 0.084102169 3.4568
-0.85013682 0.10167964 3.5353
-0.84013325 0.11596642 3.4937
-0.81154126 0.12697607 3.3748
-0.79622322 0.13925338 3.3111
-0.80528897 0.15568 3.3487999
-0.76924241 0.16288817 3.1989
-0.66552734 0.1531917 2.7676001
-0.63573295 0.15804984 2.6436999
-0.59381884 0.15857336 2.4693999
-0.6351558 0.18131758 2.6413
-0.61822665 0.18787844 2.5709
-0.57489383 0.18530466 2.3907001
-0.56871372 0.19379374 2.365
-0.55469424 0.19923925 2.3067
-0.5704211 0.21540071 2.3721001
-0.51443946 0.20374197 2.1393001
-0.51121712 0.21188726 2.1259
-0.50549388 0.21883112 2.1020999
-0.4824568 0.21774967 2.0063
-0.45756805 0.21494927 1.9028
-0.46160796 0.22535428 1.9196
-0.4480454 0.22699037 1.8631999
-0.43436262 0.22806345 1.8063
-0.44477499 0.24172749 1.8496
-0.42839894 0.24072257 1.7815
-0.42875963 0.24882708 1.783
-0.43816206 0.26235881 1.8221
-0.40084097 0.24739933 1.6669
-0.41360998 0.262903 1.72
-0.408007 0.26686093 1.6967
-0.41813084 0.28118849 1.7388
-0.38812006 0.26815942 1.614
-0.39228019 0.27826327 1.6313
-0.37049353 0.26963696 1.5407
-0.37859741 0.28251213 1.5743999
-0.37405252 0.28601432 1.5555
-0.37133518 0.29078007 1.5441999
-0.36960378 0.29623589 1.5369999
-0.35541603 0.29141459 1.478
-0.35171276 0.29486009 1.4626
-0.34062704 0.29184392 1.4165
-0.34295961 0.30016303 1.4262
-0.34731215 0.31037322 1.4443001
-0.3481538 0.31754163 1.4478
-0.33512026 0.31183022 1.3936
-0.33112845 0.31421834 1.377
-0.32879588 0.31806445 1.3673
-0.32179818 0.31722572 1.3382
-0.31968203 0.32103121 1.3293999
-0.32271197 0.33002138 1.342
-0.31203505 0.3248533 1.2976
-0.3045564 0.32268026 1.2665
-0.30922154 0.33332181 1.2859
-0.29933819 0.32818481 1.2448
-0.30025199 0.33472016 1.2486
-0.29796749 0.33766484 1.2391
-0.29871297 0.34401476 1.2422
-0.28652108 0.33525431 1.1914999
-0.29034457 0.34507903 1.2074
-0.29084957 0.35103944 1.2095
-0.28108644 0.3444362 1.1689
-0.2812548 0.34982586 1.1696
-0.27348757 0.34520522 1.1373
-0.26846173 0.34380904 1.1164
-0.26968813 0.35034987 1.1215
-1.0066384 -1.370806 4.2658
-1.0103197 -1.3568449 4.2814002
-0.9926213 -1.3144344 4.2063999
-1.0049866 -1.3119346 4.2588
-1.0077239 -1.2965826 4.2704
-1.0117356 -1.2827433 4.2873998
-1.0059777 -1.2565507 4.263
-1.0009041 -1.231416 4.2414999
-1.0126324 -1.2268276 4.2912002
-1.015228 -1.2109061 4.3021998
-1.0049629 -1.1797889 4.2586999
-1.0099658 -1.1666945 4.2799001
-1.0134817 -1.1517227 4.2947998
-1.0258 -1.1464562 4.3470001
-0.99899268 -1.0977345 4.2333999
-1.0065677 -1.0871544 4.2655001
-1.0167147 -1.0790195 4.3084998
-1.0127032 -1.0557432 4.2915001
-1.0150628 -1.0391401 4.3014998
-1.0117356 -1.0167331 4.2873998
-1.0139773 -0.99994314 4.2968998
-1.0197353 -0.9864704 4.3213
-1.0213871 -0.96888638 4.3283
-1.0143549 -0.94316572 4.2985001
-1.0260123 -0.93473607 4.3478999
-1.0133166 -0.9041394 4.2940998
-1.0246909 -0.89504409 4.3422999
-1.0237941 -0.87503362 4.3385
-1.0252336 -0.85700977 4.3446002
-1.0360178 -0.84656763 4.3902998
-1.0208445 -0.81499714 4.3260002
-1.0120895 -0.78900027 4.2888999
-1.0238413 -0.77893353 4.3386998
-1.0162191 -0.75404972 4.3063998
-1.0293396 -0.74445397 4.362
-1.0259651 -0.72274542 4.3477001
-1.0403835 -0.71336371 4.4088001
-1.0388495 -0.69280201 4.4022999
-1.0322658 -0.66902506 4.3744001
-1.0299767 -0.64819819 4.3646998
-1.0231098 -0.62466222 4.3355999
-1.0325017 -0.61100578 4.3754001
-1.0328084 -0.59179085 4.3766999
-1.0312039 -0.57150507 4.3699002
-1.0426488 -0.55826664 4.4183998
-1.0365133 -0.53551549 4.3923998
-1.0255167 -0.51057452 4.3457999
-1.0311095 -0.49399441 4.3695002
-1.031841 -0.47496653 4.3726001
-1.0296228 -0.45460883 4.3632002
-1.041469 -0.44028011 4.4134002
-1.0317466 -0.41679344 4.3722
-1.0384483 -0.39999834 4.4006
-1.0306611 -0.3776426 4.3676
-1.0338703 -0.35940206 4.3811998
-1.0456457 -0.34385794 4.4310999
-1.0434747 -0.32354718 4.4218998
-1.0216231 -0.29758531 4.3292999
-1.0330681 -0.28151771 4.3778
-1.0653735 -0.27031308 4.5146999
-1.0390147 -0.24411212 4.4029999
-1.0425309 -0.22535913 4.4179001
-1.0557928 -0.20839778 4.4741001
-1.0297171 -0.18391238 4.3635998
-1.0502001 -0.16784763 4.4503999
-1.0462593 -0.14756869 4.4337001
-1.0110748 -0.1236178 4.2845998
-1.0376461 -0.10737916 4.3972001
-1.0378584 -0.087909803 4.3980999
-1.0039011 -0.066179909 4.2542
-0.97773105 -0.046092588 4.1433001
-0.96295875 -0.027311498 4.0806999
-0.98289901 -0.009417871 4.1652002
-0.94341969 0.0086781494 3.9979
-0.99193692 0.027753349 4.2034998
-0.90080196 0.042120855 3.8173001
-0.91165698 0.059749652 3.8633001
-0.87467909 0.073752902 3.7066
-0.85506928 0.088157892 3.6235001
-0.83800799 0.10213694 3.5511999
-0.83048028 0.11681616 3.5193
-0.78769732 0.12559149 3.3380001
-0.74456036 0.13269678 3.1552
-0.70114028 0.13812602 2.9712
-0.73903847 0.15947142 3.1317999
-0.67185527 0.15759216 2.8471
-0.66874039 0.16942069 2.8339
-0.65182072 0.17737563 2.7622001
-0.57087994 0.16607107 2.4191999
-0.58005953 0.17963517 2.4581001
-0.57755816 0.18970726 2.4475
-0.53838569 0.18695156 2.2815001
-0.53069276 0.19424681 2.2488999
-0.51721841 0.1990284 2.1918001
-0.50039309 0.20195149 2.1205001
-0.49576789 0.20939551 2.1008999
-0.47082496 0.20770271 1.9952
-0.46199933 0.21248583 1.9578
-0.46870112 0.22437052 1.9862
-0.43103889 0.21443641 1.8266
-0.45067236 0.23266758 1.9098001
-0.43693841 0.23378304 1.8516001
-0.42969382 0.23797664 1.8209
-0.41124028 0.23547977 1.7427
-0.40534082 0.23971412 1.7177
-0.41385967 0.2525245 1.7538
-0.40147078 0.25250494 1.7013
-0.38365436 0.24850447 1.6258
-0.39370707 0.26240987 1.6684
-0.37596145 0.25764289 1.5932
-0.39028537 0.27478865 1.6539
-0.37735373 0.27277067 1.5991
-0.37782568 0.28020751 1.6011
-0.35984409 0.27362978 1.5249
-0.36855173 0.2871727 1.5618
-0.34905988 0.27854025 1.4792
-0.35448739 0.28952867 1.5022
-0.35866418 0.29967594 1.5199
-0.34854072 0.29776314 1.477
-0.3497206 0.30533901 1.482
-0.33242336 0.29647991 1.4087
-0.33851162 0.30826721 1.4345
-0.33039394 0.30707973 1.4001
-0.3319042 0.3147167 1.4065
-0.31946814 0.30892435 1.3538001
-0.31814665 0.31362137 1.3482
-0.31854782 0.31999925 1.3499
-0.31222355 0.31950986 1.3231
-0.30665448 0.31956989 1.2995
-0.30490822 0.32347637 1.2921
-0.30493182 0.32922813 1.2922
-0.30257204 0.33236271 1.2822
-0.29674336 0.33153313 1.2575001
-0.28718624 0.32624894 1.217
-0.28569958 0.32992563 1.2107
-0.28725702 0.33711895 1.2173001
-0.28574675 0.34071293 1.2108999
-0.28227785 0.34187806 1.1962
-0.27847859 0.34250653 1.1801
-0.27590641 0.34452459 1.1691999
-0.27982366 0.35467124 1.1858
-0.26092178 0.33561364 1.1057
-0.26818994 0.34999907 1.1365
-0.25735849 0.3406969 1.0906
-0.99678189 -1.3837242 4.3060002
-0.99268454 -1.3590316 4.2883
-0.98261487 -1.3264338 4.2448001
-0.97226739 -1.2938519 4.2000999
-0.9687025 -1.2705623 4.1847
-0.9919669 -1.2820853 4.2852001
-0.97729063 -1.2444066 4.2217999
-0.9873603 -1.2383257 4.2652998
-0.98858714 -1.2209382 4.2705998
-0.98592508 -1.1987751 4.2591
-0.98918909 -1.1838059 4.2732
-0.98391116 -1.1586529 4.2504001
-1.0040274 -1.1631198 4.3372998
-0.98597145 -1.1233267 4.2593002
-0.97594804 -1.0932226 4.2160001
-0.98384178 -1.0832294 4.2501001
-0.99152708 -1.0727085 4.2832999
-0.99131876 -1.0535046 4.2824001
-0.98166567 -1.0244522 4.2406998
-0.98631859 -1.0104251 4.2607999
-0.9941197 -0.99938464 4.2944999
-1.0035876 -0.98968917 4.3354001
-0.99520773 -0.96237236 4.2992001
-0.99965227 -0.94753212 4.3183999
-0.99986064 -0.92858756 4.3193002
-1.0058793 -0.91491985 4.3453002
-1.0108794 -0.90011472 4.3669
-0.99731427 -0.86894262 4.3083
-0.99865681 -0.85099328 4.3140998
-1.0046524 -0.83686852 4.3400002
-0.99539298 -0.81009889 4.3000002
-0.99421233 -0.79010403 4.2948999
-1.0012496 -0.77652788 4.3253002
-1.0138887 -0.76691955 4.3799
-1.0169443 -0.7497617 4.3930998
-1.0078006 -0.72372621 4.3536
-1.011921 -0.70731223 4.3713999
-1.0068283 -0.68447703 4.3494
-1.0174768 -0.6722368 4.3954
-1.014398 -0.65078229 4.3821001
-1.0104164 -0.62888372 4.3649001
-1.007708 -0.60790563 4.3532
-1.0145832 -0.59262919 4.3829002
-1.0189813 -0.57569003 4.4018998
-1.0069209 -0.54959905 4.3498001
-1.016435 -0.53533262 4.3909001
-1.0255787 -0.52051389 4.4303999
-1.0181481 -0.49725038 4.3983002
-1.0045366 -0.47137108 4.3395
-1.0162499 -0.45741156 4.3901
-1.0234722 -0.44106817 4.4212999
-1.0120831 -0.4167839 4.3720999
-1.0240972 -0.4021253 4.4239998
-1.0234028 -0.38225982 4.421
-1.0305095 -0.36518541 4.4517002
-1.0373151 -0.347738 4.4811001
-1.0151619 -0.32087651 4.3853998
-1.0213889 -0.30329052 4.4123001
-0.98884183 -0.27469486 4.2716999
-1.0017819 -0.25911066 4.3276
-1.0123609 -0.2424655 4.3733001
-1.0171063 -0.22412977 4.3937998
-1.0501163 -0.21129961 4.5363998
-1.0240972 -0.18645805 4.4239998
-1.0340512 -0.16847371 4.467
-1.0012727 -0.14396408 4.3253999
-1.0250232 -0.12775514 4.428
-1.0101154 -0.10655864 4.3635998
-1.0018051 -0.086502641 4.3277001
-0.99805504 -0.067071289 4.3115001
-0.93909532 -0.045130309 4.0567999
-0.97418869 -0.028166173 4.2083998
-0.95474386 -0.0093256189 4.1244001
-0.9761101 0.0091530932 4.2167001
-0.8917563 0.025434574 3.8522999
-0.90492791 0.043134894 3.9092
-0.95569295 0.063851222 4.1285
-0.9017334 0.077509597 3.8954
-0.82448626 0.086654328 3.5617001
-0.84559786 0.10506196 3.6529
-0.7744388 0.11104721 3.3455
-0.77395272 0.12579466 3.3434
-0.76110518 0.13827766 3.2879
-0.76793402 0.15422027 3.3174
-0.70830303 0.15580519 3.0597999
-0.64633405 0.15454781 2.7921
-0.67371893 0.17399412 2.9103999
-0.59017539 0.16371702 2.5495
-0.56170255 0.1665722 2.4265001
-0.57436484 0.18132327 2.4812
-0.54654014 0.18300259 2.3610001
-0.54193354 0.19183533 2.3411
-0.53028983 0.1978659 2.2908001
-0.48952499 0.19202727 2.1147001
-0.50998837 0.20981811 2.2031
-0.47137639 0.20295687 2.0362999
-0.46160766 0.2075882 1.9941
-0.45038056 0.21116173 1.9456
-0.45359823 0.22135437 1.9595
-0.44355172 0.2249434 1.9161
-0.43688488 0.22992645 1.8873
-0.43862101 0.23923746 1.8947999
-0.43825066 0.24742566 1.8932
-0.4218151 0.24622208 1.8221999
-0.40348136 0.24324487 1.743
-0.41102782 0.25566339 1.7756
-0.40818053 0.26170689 1.7632999
-0.39956921 0.26383537 1.7261
-0.37762427 0.25657466 1.6313
-0.39313391 0.27463904 1.6983
-0.3755872 0.26957166 1.6224999
-0.3650777 0.26901796 1.5771
-0.37486961 0.28341019 1.6194
-0.35579509 0.27580103 1.5369999
-0.3612119 0.28691527 1.5604
-0.35044774 0.28507444 1.5139
-0.3539432 0.29469401 1.529
-0.34310964 0.29224271 1.4822
-0.33716041 0.29363033 1.4565001
-0.33345664 0.29678869 1.4405
-0.34097996 0.31001273 1.473
-0.32213694 0.29904822 1.3916
-0.32167396 0.30477682 1.3896
-0.32970652 0.3186996 1.4243
-0.31850258 0.31396735 1.3759
-0.3150534 0.31659892 1.3609999
-0.31750721 0.32514334 1.3716
-0.30632639 0.31955817 1.3233
-0.31107184 0.33046404 1.3437999
-0.30560875 0.33051118 1.3202
-0.30361798 0.33417088 1.3116
-0.29118714 0.32606384 1.2579
-0.29482147 0.33577779 1.2736
-0.28202027 0.32659745 1.2183
-0.28229806 0.33232367 1.2194999
-0.28343236 0.33908522 1.2244
-0.2807008 0.34119129 1.2126
-0.27544606 0.34007752 1.1899
-0.27218208 0.34125853 1.1758
-0.2700524 0.34375846 1.1666
-0.26718196 0.34521973 1.1542
-0.26153368 0.34292871 1.1298
-0.26505229 0.35261676 1.145
-0.26157999 0.35300523 1.13
-0.96366024 -1.3642184 4.2452998
-0.96386462 -1.3456894 4.2462001
-0.95206088 -1.3106221 4.1942
-0.96992534 -1.3162782 4.2729001
-0.98154747 -1.3128871 4.3241
-0.96415967 -1.2708057 4.2474999
-0.97367078 -1.2643323 4.2894001
-0.97392046 -1.2456421 4.2905002
-0.96284312 -1.2126759 4.2417002
-0.96438664 -1.1957916 4.2484999
-0.97380692 -1.18846 4.29
-0.96488607 -1.1587347 4.2507
-0.97373885 -1.1503551 4.2897
-0.97444254 -1.1321617 4.2927999
-0.97546399 -1.1143038 4.2972999
-0.97031122 -1.0894737 4.2746
-0.98141128 -1.0827763 4.3235002
-0.97473758 -1.0563828 4.2940998
-0.96849531 -1.0307091 4.2666001
-0.97001618 -1.0133895 4.2733002
-0.97807449 -1.0027125 4.3088002
-0.98763096 -0.99322754 4.3509002
-0.97555476 -0.96203655 4.2976999
-0.97970879 -0.94700551 4.316
-0.97360271 -0.922095 4.2891002
-0.9785738 -0.9076978 4.3109999
-0.98931074 -0.89834207 4.3583002
-0.98390818 -0.87422687 4.3344998
-0.98256892 -0.85385358 4.3285999
-0.97816521 -0.8309294 4.3091998
-0.97998124 -0.81333923 4.3172002
-0.98088914 -0.79494226 4.3211999
-0.9919439 -0.78453499 4.3699002
-0.98679101 -0.76119381 4.3471999
-0.98447567 -0.74018723 4.3369999
-0.98322725 -0.72005242 4.3315001
-0.98536098 -0.7023772 4.3408999
-0.99339652 -0.68871033 4.3762999
-0.98851627 -0.66602743 4.3548002
-1.0025672 -0.65592068 4.4166999
-0.99153525 -0.62934476 4.3681002
-0.99303341 -0.61090803 4.3747001
-0.99028671 -0.58988428 4.3625998
-0.98819846 -0.56934714 4.3534002
-0.99766409 -0.55532271 4.3951001
-0.99864018 -0.53636897 4.3994002
-0.99364626 -0.51428711 4.3773999
-0.98713154 -0.49164283 4.3487
-0.99269289 -0.4750317 4.3731999
-0.99385059 -0.45618212 4.3783002
-0.99668801 -0.4380255 4.3908
-0.99394131 -0.41741306 4.3786998
-0.99721003 -0.39931661 4.3930998
-1.01285 -0.38580486 4.4619999
-1.0044966 -0.36301154 4.4252
-1.0031801 -0.34295002 4.4194002
-1.0025898 -0.32317403 4.4168
-1.005223 -0.3043972 4.4284
-1.0065622 -0.28515097 4.4342999
-1.0183887 -0.26861867 4.4864001
-0.99657446 -0.24340799 4.3902998
-1.0187291 -0.22892985 4.4878998
-1.0071751 -0.20666969 4.4369998
-0.98835737 -0.183512 4.3541002
-1.0141439 -0.16850011 4.4677
-0.98724496 -0.14475623 4.3491998
-1.0010009 -0.12723003 4.4098001
-0.99328309 -0.10685657 4.3758001
-0.96166271 -0.084679715 4.2364998
-0.96055043 -0.065828331 4.2315998
-0.93642092 -0.045892347 4.1252999
-0.90303004 -0.026625482 3.9782
-0.95762223 -0.0095388386 4.2186999
-0.95739526 0.0091552641 4.2177
-0.8613084 0.025052292 3.7944
-0.8951987 0.043515578 3.9437001
-0.85978752 0.058580425 3.7876999
-0.88739014 0.07778617 3.9093001
-0.86328328 0.092527471 3.8031001
-0.78671801 0.099680729 3.4658
-0.7776382 0.11371262 3.4258001
-0.7738474 0.1282666 3.4091001
-0.72808528 0.13489632 3.2075
-0.71830183 0.14710756 3.1644001
-0.69902992 0.15680832 3.0795
-0.66513968 0.1621919 2.9302001
-0.65621877 0.17282835 2.8908999
-0.63097697 0.17849939 2.7797
-0.6079824 0.1838644 2.6784
-0.61029774 0.19647984 2.6886001
-0.5498718 0.18776174 2.4224
-0.50808209 0.18341166 2.2383001
-0.49748144 0.18929759 2.1916001
-0.50122684 0.20050853 2.2081001
-0.47507706 0.19932292 2.0929
-0.5024299 0.22060831 2.2133999
-0.46263775 0.21216865 2.0381
-0.47146782 0.22542295 2.0769999
-0.44266221 0.22029249 1.9500999
-0.43859902 0.22683348 1.9322
-0.42239159 0.226698 1.8608
-0.41219953 0.22927554 1.8159
-0.4180333 0.24068195 1.8415999
-0.38906878 0.23160173 1.714
-0.39179271 0.24087243 1.726
-0.40330136 0.25582179 1.7767
-0.40809092 0.26682734 1.7977999
-0.39399457 0.26530275 1.7357
-0.38325775 0.2655555 1.6884
-0.36911595 0.26296329 1.6260999
-0.36101225 0.26423839 1.5904
-0.3665055 0.27541462 1.6145999
-0.35719875 0.27539477 1.5736001
-0.36071715 0.28514993 1.5891
-0.3548153 0.28741175 1.5631
-0.35225025 0.29221117 1.5518
-0.35134226 0.29831743 1.5477999
-0.34103674 0.29622549 1.5024
-0.33567968 0.29812601 1.4788001
-0.3293238 0.2989108 1.4507999
-0.32401213 0.30041558 1.4274
-0.33000478 0.31241471 1.4538
-0.32489741 0.31392273 1.4313
-0.32103848 0.31646201 1.4143
-0.30126727 0.30285448 1.3272001
-0.31005198 0.3177388 1.3659
-0.30065438 0.31397808 1.3245
-0.30031389 0.31948572 1.323
-0.29634148 0.3210454 1.3055
-0.29650038 0.32700631 1.3062
-0.29423043 0.33024725 1.2962
-0.28991753 0.33106667 1.2772
-0.2871255 0.33348408 1.2649
-0.28587702 0.3376154 1.2594
-0.27595738 0.33128816 1.2157
-0.27066839 0.33022314 1.1924
-0.27223468 0.33744904 1.1993001
-0.27007821 0.34004894 1.1898
-0.26565182 0.33966225 1.1703
-0.26855734 0.34862047 1.1831
-0.25913706 0.34145111 1.1416
-0.266469 0.35631442 1.1739
-0.2575708 0.34944472 1.1346999
-0.25493768 0.35084972 1.1231
-0.94272095 -1.361519 4.2368999
-0.93384314 -1.3300972 4.197
-0.95244431 -1.3376207 4.2806001
-0.94029564 -1.3018304 4.2259998
-0.9451462 -1.2897208 4.2477999
-0.9546026 -1.2836111 4.2902999
-0.94817233 -1.2560791 4.2614002
-0.94719326 -1.235916 4.257
-0.93853796 -1.2059288 4.2181001
-0.95184362 -1.2040666 4.2779002
-0.94002873 -1.1703976 4.2248001
-0.94883978 -1.1624693 4.2644
-0.95478058 -1.1507305 4.2911
-0.95293385 -1.1295245 4.2828002
-0.94792753 -1.1047097 4.2603002
-0.96319115 -1.1033132 4.3288999
-0.95150983 -1.0709805 4.2764001
-0.96012068 -1.0615491 4.3151002
-0.96190071 -1.0443581 4.3231001
-0.96065468 -1.0238712 4.3175001
-0.95894146 -1.0029452 4.3098001
-0.96014285 -0.98507786 4.3151999
-0.96292424 -0.96875209 4.3277001
-0.96321344 -0.94985795 4.329
-0.95956445 -0.92714715 4.3126001
-0.97155726 -0.91938353 4.3664999
-0.965038 -0.8939929 4.3372002
-0.9632802 -0.87317806 4.3292999
-0.96750772 -0.85773957 4.3483
-0.97006649 -0.84068644 4.3597999
-0.96810848 -0.81970698 4.3509998
-0.96650648 -0.79909986 4.3438001
-0.96784151 -0.78092635 4.3498001
-0.97609633 -0.76814526 4.3868999
-0.96254599 -0.73830992 4.3260002
-0.97286999 -0.7268514 4.3723998
-0.9602319 -0.69828349 4.3155999
-0.97720885 -0.69116539 4.3919001
-0.9784103 -0.67252737 4.3972998
-0.97367108 -0.64987636 4.3759999
-0.96704048 -0.62618947 4.3462
-0.97698641 -0.61317033 4.3909001
-0.98254895 -0.59709126 4.4159002
-0.98001242 -0.57603008 4.4045
-0.97073406 -0.55124158 4.3628001
-0.97002202 -0.53151655 4.3596001
-0.97502834 -0.51483929 4.3821001
-0.98096919 -0.49843746 4.4088001
-0.97763157 -0.47726932 4.3937998
-0.9834612 -0.46052691 4.4200001
-0.98266017 -0.44057935 4.4164
-0.98257113 -0.4209688 4.4159999
-0.98397291 -0.40197077 4.4222999
-0.98119164 -0.38129142 4.4098001
-0.97858834 -0.36078843 4.3980999
-0.98007911 -0.34181702 4.4047999
-0.98719925 -0.32463744 4.4368
-1.0040649 -0.3101849 4.5125999
-1.0184163 -0.29433385 4.5770998
-1.0032194 -0.26995984 4.5088
-0.97602957 -0.24320287 4.3866
-0.99478656 -0.22806269 4.4709001
-0.97798765 -0.20473203 4.3954
-0.98386168 -0.18636535 4.4218001
-0.98027945 -0.16616178 4.4057002
-0.97002202 -0.14510238 4.3596001
-0.96526051 -0.12516426 4.3382001
-0.95827389 -0.10517159 4.3067999
-0.92972684 -0.083520412 4.1785002
-0.96739644 -0.067635983 4.3477998
-0.91428512 -0.045712125 4.1090999
-0.92520994 -0.027830193 4.1581998
-0.87080818 -0.0088492082 3.9137001
-0.90316004 0.0088109951 4.0591002
-0.87149793 0.025860433 3.9168
-0.89441574 0.044355281 4.0198002
-0.88524854 0.061532877 3.9786
-0.82724214 0.073977746 3.7179
-0.76643223 0.083805345 3.4446001
-0.82432735 0.10655466 3.7047999
-0.80777317 0.12050389 3.6303999
-0.72711599 0.12295399 3.2679
-0.71955097 0.13600662 3.2339001
-0.69180489 0.1445414 3.1092
-0.62734586 0.1435691 2.8195
-0.66223431 0.16474362 2.9763
-0.60511786 0.16258742 2.7196
-0.62256211 0.17967454 2.7980001
-0.6012463 0.18549819 2.7021999
-0.59176773 0.19436055 2.6596
-0.53952414 0.18794776 2.4247999
-0.52130121 0.19198282 2.3429
-0.48899382 0.18982448 2.1977
-0.44836485 0.182983 2.0151
-0.47947073 0.20522767 2.1549001
-0.4510349 0.20203993 2.0271001
-0.46382877 0.21700935 2.0846
-0.45070112 0.21984436 2.0256
-0.44367003 0.22525164 1.994
-0.41303143 0.21792309 1.8563
-0.41605747 0.22780663 1.8699
-0.41280892 0.23425019 1.8552999
-0.3965885 0.23294501 1.7824
-0.39707801 0.24114145 1.7846
-0.39064768 0.24501722 1.7557
-0.39899153 0.25819758 1.7932
-0.37251374 0.24848279 1.6742001
-0.3641699 0.25017053 1.6367
-0.37898856 0.26789901 1.7033
-0.3710897 0.26970676 1.6677999
-0.36069885 0.26933905 1.6210999
-0.3470372 0.26604992 1.5597
-0.35346752 0.27801991 1.5886
-0.34892845 0.28139961 1.5682
-0.34516817 0.28524205 1.5513
-0.34436718 0.29143915 1.5477
-0.35099775 0.30404171 1.5775
-0.32665595 0.28946263 1.4681
-0.33711359 0.30544409 1.5151
-0.32538769 0.30130076 1.4624
-0.31686586 0.29972106 1.4241
-0.329326 0.31806645 1.4801
-0.32262868 0.31802416 1.45
-0.31099176 0.31274763 1.3977
-0.30267018 0.31040755 1.3602999
-0.30460596 0.3184599 1.369
-0.3022697 0.32203794 1.3585
-0.29739687 0.32276991 1.3365999
-0.30117944 0.33287403 1.3536
-0.29417062 0.33098686 1.3221
-0.28175494 0.3226293 1.2663
-0.28228897 0.32886335 1.2687
-0.28033093 0.33216584 1.2599
-0.2748796 0.33118156 1.2354
-0.27559164 0.33752859 1.2386
-0.26515627 0.33002928 1.1917
-0.26893878 0.34009391 1.2086999
-0.25770244 0.33101752 1.1582
-0.26477802 0.34537989 1.1900001
-0.26124021 0.34596848 1.1741
-0.25523263 0.34309614 1.1471
-0.25585565 0.34902969 1.1499
-0.25149462 0.34808972 1.1303
-0.2503821 0.35153699 1.1253
-0.92181355 -1.3587555 4.2283001
-0.93129694 -1.3538024 4.2718
-0.93517751 -1.3404331 4.2895999
-0.9259339 -1.3083612 4.2472
-0.93543917 -1.3027765 4.2908001
-0.92922586 -1.2752337 4.2623
-0.93816429 -1.2684293 4.3032999
-0.93576622 -1.2461647 4.2923002
-0.92835379 -1.2174217 4.2582998
-0.93718326 -1.2099491 4.2988
-0.92408079 -1.1742483 4.2386999
-0.9464705 -1.1834594 4.3414001
-0.93114436 -1.1453671 4.2711
-0.94274247 -1.1404693 4.3242998
-0.93485051 -1.1119182 4.2880998
-0.93144959 -1.0889385 4.2725
-0.93652928 -1.075839 4.2958002
-0.93206 -1.0517579 4.2753
-0.93615854 -1.0373524 4.2940998
-0.93271399 -1.0145751 4.2782998
-0.94636148 -1.0101825 4.3408999
-0.9457947 -0.9903512 4.3383002
-0.94788754 -0.97327381 4.3478999
-0.93168938 -0.93770224 4.2736001
-0.93705249 -0.92405134 4.2982001
-0.94176143 -0.90955067 4.3197999
-0.94265538 -0.8912515 4.3239002
-0.95104873 -0.87985402 4.3624001
-0.94115102 -0.85156536 4.3169999
-0.94121641 -0.83249128 4.3172998
-0.95741463 -0.82735586 4.3916001
-0.95957297 -0.80971456 4.4015002
-0.95959467 -0.79022604 4.4015999
-0.94147807 -0.75616848 4.3185
-0.95852643 -0.75037611 4.3966999
-0.96384597 -0.7349472 4.4211001
-0.96848953 -0.71880037 4.4424
-0.95037293 -0.68603504 4.3593001
-0.96449995 -0.67662621 4.4240999
-0.94671035 -0.64490134 4.3425002
-0.94064963 -0.62165105 4.3147001
-0.94875962 -0.60772413 4.3519001
-0.94520599 -0.58623356 4.3355999
-0.94258988 -0.56544977 4.3235998
-0.95019847 -0.55069828 4.3585
-0.95061272 -0.53161412 4.3604002
-0.95767617 -0.51609641 4.3927999
-0.94492263 -0.49001485 4.3343
-0.95000231 -0.4733372 4.3576002
-0.96210182 -0.45980793 4.4130998
-0.96637487 -0.44220546 4.4327002
-0.95815587 -0.41896692 4.395
-0.96175301 -0.40098912 4.4115
-0.96194917 -0.38151619 4.4123998
-0.96334445 -0.36248651 4.4187999
-0.96436918 -0.34326819 4.4235001
-0.96984118 -0.32550082 4.4485998
-0.97662133 -0.30792344 4.4797001
-0.9840337 -0.29025686 4.5137
-0.97016823 -0.26644522 4.4500999
-0.98745644 -0.25112 4.5293999
-0.96299571 -0.22532342 4.4172001
-0.97574925 -0.2084723 4.4756999
-0.95399183 -0.18443079 4.3758998
-0.95039463 -0.16441554 4.3593998
-0.93986475 -0.14348814 4.3111
-0.96138239 -0.12723003 4.4098001
-0.92471308 -0.10357942 4.2416
-0.9011243 -0.082618944 4.1334
-0.88695365 -0.063289538 4.0683999
-0.9003613 -0.045943521 4.1299
-0.89933658 -0.02760933 4.1251998
-0.90971392 -0.0094350548 4.1728001
-0.88684469 0.0088300966 4.0679002
-0.84664351 0.025640571 3.8835001
-0.83249462 0.042135198 3.8185999
-0.84583688 0.060004842 3.8798001
-0.81389832 0.074284174 3.7333
-0.7921409 0.088401191 3.6335001
-0.77454746 0.10218295 3.5527999
-0.73018235 0.11117334 3.3492999
-0.7208733 0.12441007 3.3066001
-0.67964756 0.13111125 3.1175001
-0.71180409 0.15178429 3.2650001
-0.6544019 0.15284672 3.0016999
-0.6794731 0.172515 3.1166999
-0.64450425 0.1767382 2.9563
-0.6334511 0.1865841 2.9056001
-0.55945837 0.1761622 2.5662
-0.60696286 0.20345888 2.7841001
-0.55976361 0.19901629 2.5676
-0.50417089 0.18949996 2.3125999
-0.48343813 0.19153467 2.2175
-0.48254427 0.2009898 2.2133999
-0.42520756 0.18575156 1.9504
-0.46338117 0.21184738 2.1255
-0.44127494 0.21071124 2.0241001
-0.43179145 0.21496038 1.9806
