# .PCD v0.7 - Point Cloud Data file format
VERSION 0.7
FIELDS x y z
SIZE 4 4 4
TYPE F F F
COUNT 1 1 1
WIDTH 1496
HEIGHT 1
VIEWPOINT 0 0 0 1 0 0 0
POINTS 1496
DATA ascii
-0.56171125 -0.94219607 4.3825998
-0.54761279 -0.89961255 4.2726002
-0.54768962 -0.88080108 4.2732
-0.54839456 -0.86297256 4.2786999
-0.55746889 -0.85797632 4.3495002
-0.54740763 -0.8235634 4.2709999
-0.55332905 -0.81333923 4.3172002
-0.55311114 -0.79389364 4.3154998
-0.55330342 -0.77503771 4.3169999
-0.5501889 -0.75165087 4.2926998
-0.55477732 -0.73873651 4.3284998
-0.55886596 -0.72485667 4.3604002
-0.55529004 -0.70101804 4.3325
-0.56142932 -0.68935561 4.3804002
-0.55825073 -0.66614974 4.3555999
-0.55741763 -0.64588147 4.3491001
-0.55532849 -0.62425882 4.3327999
-0.55909657 -0.60916245 4.3621998
-0.55605906 -0.5866257 4.3385
-0.56791466 -0.57949585 4.4310002
-0.56458229 -0.55657357 4.4050002
-0.54404968 -0.51752031 4.2448001
-0.5659793 -0.51881039 4.4159002
-0.55696905 -0.49129239 4.3456001
-0.56458229 -0.47848594 4.4050002
-0.56023735 -0.45543191 4.3710999
-0.55992973 -0.43582082 4.3687
-0.56094223 -0.41721287 4.3765998
-0.56306982 -0.3993257 4.3931999
-0.56107044 -0.37850726 4.3776002
-0.56104481 -0.35909036 4.3773999
-0.5610832 -0.33971405 4.3776999
-0.56581265 -0.32301307 4.4145999
-0.56645352 -0.3037923 4.4196
-0.55699468 -0.27945992 4.3457999
-0.57225955 -0.26733136 4.4649
-0.57117009 -0.24707273 4.4563999
-0.56073719 -0.22317077 4.375
-0.57633525 -0.20945044 4.4966998
-0.56868362 -0.18700597 4.4369998
-0.57859105 -0.17025763 4.5142999
-0.56039113 -0.14552508 4.3723001
-0.54279363 -0.12218677 4.2350001
-0.54451108 -0.10374548 4.2484002
-0.52690071 -0.082171209 4.1110001
-0.51262271 -0.062219255 3.9995999
-0.48643792 -0.042221226 3.7953
-0.52270961 -0.027295437 4.0783
-0.53375775 -0.0094162887 4.1645002
-0.53300148 0.0090269763 4.1585999
-0.50962359 0.026252618 3.9762001
-0.51087964 0.043982323 3.9860001
-0.50836754 0.061344191 3.9663999
-0.44788483 0.069532596 3.4944999
-0.47892725 0.090911992 3.7367001
-0.47323656 0.10619516 3.6923001
-0.43199193 0.11187704 3.3705001
-0.44377062 0.130272 3.4624
-0.40746048 0.13370192 3.1791
-0.40506372 0.1469216 3.1603999
-0.41957241 0.1666919 3.2736001
-0.40717849 0.17584719 3.1768999
-0.35850012 0.16722065 2.7971001
-0.40237218 0.20159765 3.1394
-0.39011928 0.20894806 3.0438001
-0.35014352 0.19964415 2.7319
-0.32723981 0.19790013 2.5532
-0.29691517 0.18982774 2.3166001
-0.28786647 0.19399634 2.2460001
-0.27288356 0.19333488 2.1291001
-0.27507523 0.20439909 2.1461999
-0.26978186 0.20979418 2.1048999
-0.26433474 0.21469831 2.0624001
-0.25049251 0.21211681 1.9543999
-0.25127435 0.22146733 1.9605
-0.24683972 0.22609389 1.9259
-0.2486469 0.2363468 1.9400001
-0.23740652 0.23387142 1.8523
-0.23813708 0.24282531 1.858
-0.23485595 0.24760035 1.8324
-0.22929345 0.24966443 1.789
-0.23097245 0.25947905 1.8020999
-0.22610204 0.26182562 1.7641
-0.2173097 0.25915816 1.6955
-0.22085996 0.27102891 1.7232
-0.22044982 0.27814826 1.72
-0.20736381 0.26880738 1.6179
-0.21566914 0.28703097 1.6827
-0.20677423 0.28234264 1.6133
-0.20669734 0.28938472 1.6127
-0.19582865 0.2809394 1.5279
-0.20255749 0.29759669 1.5804
-0.19937892 0.29982081 1.5556
-0.19525188 0.30036601 1.5233999
-0.19161192 0.30139193 1.495
-0.19156064 0.30793503 1.4946001
-0.18998417 0.31197003 1.4823
-0.17957689 0.30108973 1.4011
-0.18633136 0.31885758 1.4538
-0.18235813 0.31836396 1.4227999
-0.17910266 0.31887344 1.3974
-0.17896166 0.32481048 1.3963
-0.1757831 0.32511964 1.3715
-0.17230974 0.32465354 1.3444
-0.16819552 0.32271761 1.3123
-0.16937466 0.33083662 1.3214999
-0.16458118 0.32716441 1.2841001
-0.16714455 0.33803949 1.3041
-0.16287653 0.33503959 1.2708
-0.16579877 0.34678361 1.2936
-0.16078739 0.34186149 1.2545
-0.15999274 0.34570408 1.2483
-0.15528895 0.3409099 1.2115999
-0.15305883 0.34130648 1.1942
-0.15222573 0.34471235 1.1877
-0.15249488 0.35059476 1.1898
-0.14795771 0.34527954 1.1544
-0.14789364 0.35024384 1.1539
-0.14859855 0.3570514 1.1594
-0.14611208 0.35612914 1.14
-0.52817243 -1.3723484 4.2705998
-0.5232625 -1.3408406 4.2308998
-0.52845693 -1.3352146 4.2729001
-0.51533484 -1.2835938 4.1668
-0.52718306 -1.2942144 4.2625999
-0.52851874 -1.2785547 4.2733998
-0.52540207 -1.2521882 4.2481999
-0.53487569 -1.2556001 4.3248
-0.52636677 -1.2167642 4.256
-0.53162301 -1.2098647 4.2985001
-0.53830153 -1.2057744 4.3525
-0.52673781 -1.1609972 4.2589998
-0.54382992 -1.179183 4.3972001
-0.52900106 -1.1280738 4.2772999
-0.52777666 -1.1065507 4.2673998
-0.53229082 -1.0969414 4.3038998
-0.52710885 -1.0673742 4.2620001
-0.53043574 -1.0551035 4.2888999
-0.52969366 -1.0346467 4.2828999
-0.53230321 -1.0206697 4.3039999
-0.53153646 -1.0001526 4.2978001
-0.53247637 -0.98284072 4.3053999
-0.53381205 -0.96617776 4.3161998
-0.53504884 -0.94924361 4.3262
-0.53507358 -0.93011385 4.3263998
-0.53096753 -0.90394998 4.2932
-0.53028733 -0.8837899 4.2877002
-0.53386152 -0.87061661 4.3165998
-0.5353086 -0.8537944 4.3283
-0.54066378 -0.84296185 4.3716002
-0.53104174 -0.80893075 4.2937999
-0.54453486 -0.80997211 4.4029002
-0.53898174 -0.78239846 4.3579998
-0.53857362 -0.76250708 4.3547001
-0.53643405 -0.74025553 4.3374
-0.53217953 -0.71531469 4.303
-0.53518492 -0.70017666 4.3273001
-0.53676796 -0.68301344 4.3400998
-0.53856128 -0.66599679 4.3546
-0.535927 -0.64353502 4.3333001
-0.53622377 -0.62467664 4.3357
-0.53806651 -0.60754251 4.3505998
-0.53689164 -0.58697724 4.3411002
-0.53498697 -0.56572443 4.3256998
-0.5257237 -0.53709036 4.2508001
-0.54928398 -0.54147732 4.4412999
-0.54568505 -0.51837564 4.4122
-0.54378045 -0.4970808 4.3968
-0.54145527 -0.47555307 4.3779998
-0.54009485 -0.45500475 4.3670001
-0.54055244 -0.43602034 4.3706999
-0.54626632 -0.4210546 4.4169002
-0.53956306 -0.39655337 4.3627
-0.54071325 -0.37802306 4.3720002
-0.5442009 -0.36096069 4.4001999
-0.54859143 -0.34421492 4.4356999
-0.54423797 -0.32198137 4.4004998
-0.55017447 -0.30577883 4.4485002
-0.54898721 -0.28544679 4.4389
-0.54040408 -0.26161939 4.3695002
-0.5454253 -0.24450576 4.4101
-0.54128212 -0.22325239 4.3765998
-0.55146074 -0.20768978 4.4589
-0.54501712 -0.18573312 4.4067998
-0.54625392 -0.16658041 4.4168
-0.54552424 -0.14680983 4.4109001
-0.5244869 -0.1223541 4.2407999
-0.53302056 -0.10524486 4.3098001
-0.51192141 -0.082734883 4.1392002
-0.48796523 -0.061377656 3.9454999
-0.48850942 -0.043941088 3.9498999
-0.50374639 -0.027260633 4.0731001
-0.5321672 -0.0097292215 4.3028998
-0.4840818 0.0084962463 3.9140999
-0.50008553 0.02669696 4.0434999
-0.49507663 0.044169903 4.0029998
-0.48153409 0.060216725 3.8935001
-0.46415755 0.074676156 3.753
-0.46842438 0.092147924 3.7874999
-0.43025783 0.10005751 3.4789
-0.42735144 0.11469512 3.4554
-0.42994863 0.13079874 3.4763999
-0.40887418 0.13903889 3.306
-0.39778042 0.14952031 3.2163
-0.37644625 0.15499048 3.0438001
-0.35490182 0.15883757 2.8696001
-0.3868103 0.18697912 3.1276
-0.35472867 0.18418245 2.8682001
-0.3747395 0.20800072 3.03
-0.32824954 0.19395861 2.6540999
-0.30559203 0.191521 2.4709001
-0.28210586 0.18691058 2.2809999
-0.26847672 0.187501 2.1708
-0.26146427 0.19197278 2.1141
-0.27990445 0.2155419 2.2632
-0.26265156 0.21166797 2.1236999
-0.25040761 0.21077369 2.0246999
-0.25508258 0.22384922 2.0625
-0.24381566 0.22269866 1.9714
-0.24877506 0.23614301 2.0114999
-0.24526268 0.24159759 1.9831001
-0.22949393 0.23428807 1.8556
-0.23108935 0.24419756 1.8685
-0.22720593 0.24823543 1.8371
-0.22280304 0.25140885 1.8015
-0.22580837 0.26289156 1.8257999
-0.21616162 0.25940639 1.7478
-0.22130655 0.27351081 1.7894
-0.21110326 0.26846522 1.7069
-0.20154308 0.2635293 1.6296
-0.20418975 0.27430683 1.651
-0.20316322 0.28020784 1.6427
-0.19650944 0.27807242 1.5889
-0.1971031 0.28597537 1.5937001
-0.19747411 0.29358986 1.5967
-0.19377619 0.29503575 1.5668
-0.1897196 0.29565769 1.534
-0.18192798 0.29003441 1.471
-0.18263294 0.29770264 1.4766999
-0.17912054 0.29839572 1.4483
-0.183375 0.31205419 1.4827
-0.17630072 0.30633318 1.4255
-0.18044387 0.31999809 1.459
-0.17711699 0.32044494 1.4321001
-0.16990665 0.31348816 1.3738
-0.16952325 0.31885538 1.3707
-0.16733418 0.32073414 1.353
-0.16701262 0.32610244 1.3504
-0.1637352 0.32557026 1.3239
-0.16180584 0.32753202 1.3083
-0.16019805 0.33001795 1.2953
-0.16085353 0.33713225 1.3006001
-0.15815739 0.33714876 1.2788
-0.15808319 0.34265524 1.2782
-0.15259196 0.33622056 1.2338001
-0.15167674 0.3396391 1.2264
-0.15040287 0.34217608 1.2161
-0.14753358 0.3409349 1.1928999
-0.14779331 0.34683105 1.1950001
-0.14608657 0.34806061 1.1812
-0.14612366 0.35338512 1.1815
-0.14174554 0.34787628 1.1461
-0.13992748 0.34842846 1.1314
-0.1399646 0.35353631 1.1317
-0.50609237 -1.3645397 4.2463002
-0.50512695 -1.3431542 4.2382002
-0.50870246 -1.333746 4.2681999
-0.50739139 -1.3114417 4.2571998
-0.51074046 -1.3011065 4.2852998
-0.50535339 -1.2685918 4.2400999
-0.5094772 -1.2599993 4.2747002
-0.50714111 -1.2353644 4.2550998
-0.51451862 -1.2342037 4.3169999
-0.50335109 -1.1886988 4.2233
-0.51411343 -1.194998 4.3136001
-0.5064618 -1.1583803 4.2494001
-0.51490003 -1.1585342 4.3202
-0.51685464 -1.1437132 4.3365998
-0.51183701 -1.1135778 4.2944999
-0.50933415 -1.0891933 4.2735
-0.50997776 -1.0716066 4.2789001
-0.51346982 -1.0598515 4.3081999
-0.5165686 -1.0470396 4.3341999
-0.50915533 -1.0130811 4.2719998
-0.50784433 -0.99158883 4.2610002
-0.51727182 -0.99076205 4.3400998
-0.5076775 -0.95350796 4.2596002
-0.51466167 -0.94748831 4.3182001
-0.51481658 -0.92863047 4.3195
-0.51728374 -0.91384596 4.3401999
-0.51233757 -0.88605714 4.2986999
-0.51214689 -0.86668366 4.2971001
-0.51150328 -0.84657472 4.2916999
-0.50505543 -0.817123 4.2375998
-0.51227802 -0.80975974 4.2982001
-0.51395851 -0.79330504 4.3123002
-0.51714075 -0.77898747 4.3390002
-0.51387507 -0.7549603 4.3116002
-0.51847559 -0.7424401 4.3502002
-0.51654482 -0.72046798 4.3340001
-0.51650906 -0.70121223 4.3337002
-0.51917875 -0.68553144 4.3561001
-0.5167951 -0.66316742 4.3361001
-0.51770085 -0.64507949 4.3436999
-0.52174127 -0.63071352 4.3776002
-0.51437563 -0.60268295 4.3158002
-0.51843977 -0.58816707 4.3498998
-0.52354091 -0.57448691 4.3927002
-0.52486384 -0.55642194 4.4038
-0.51923835 -0.53115076 4.3565998
-0.52439904 -0.51693058 4.3999
-0.51720029 -0.49060273 4.3395
-0.52543592 -0.47887695 4.4085999
-0.51910728 -0.45380655 4.3555002
-0.51829678 -0.43382564 4.3487
-0.52478045 -0.41973907 4.4031
-0.52318335 -0.39900756 4.3896999
-0.52017993 -0.37737456 4.3645
-0.5243395 -0.3608951 4.3994002
-0.5243752 -0.34142128 4.3997002
-0.52436328 -0.32191554 4.3996
-0.53020328 -0.30578569 4.4485998
-0.53437477 -0.28832126 4.4836001
-0.52717602 -0.26483464 4.4232001
-0.52829635 -0.24575321 4.4326
-0.52517378 -0.22477251 4.4064002
-0.51835638 -0.20258008 4.3491998
-0.52740246 -0.18650442 4.4250998
-0.52464932 -0.16602221 4.402
-0.52293307 -0.14603432 4.3875999
-0.51933372 -0.12571821 4.3573999
-0.50207585 -0.10287125 4.2126002
-0.50055027 -0.083946154 4.1998
-0.48928732 -0.063863568 4.1052999
-0.4942573 -0.046133749 4.1469998
-0.48381677 -0.027168943 4.0594001
-0.49007395 -0.0092973541 4.1118999
-0.47020593 0.0085637541 3.9452
-0.47474685 0.026299493 3.9833
-0.44700074 0.041383769 3.7505
-0.47084951 0.061099827 3.9505999
-0.44194734 0.073782749 3.7081001
-0.43853867 0.089520343 3.6795001
-0.4136053 0.099810153 3.4703
-0.41012511 0.11422046 3.4410999
-0.38185462 0.12054601 3.2039001
-0.38389266 0.13546409 3.221
-0.36762401 0.14339314 3.0845001
-0.35602736 0.15210839 2.9872
-0.36292812 0.16855182 3.0451
-0.36978126 0.18548454 3.1026001
-0.32425281 0.17470425 2.7205999
-0.30705452 0.17685552 2.5762999
-0.31343091 0.19218281 2.6298001
-0.26736614 0.17387958 2.2433
-0.28262174 0.19430998 2.3713
-0.264029 0.19134466 2.2153001
-0.26783097 0.20405905 2.2472
-0.25071612 0.20034197 2.1036
-0.23802298 0.19904983 1.9971
-0.23190881 0.2025601 1.9457999
-0.25419632 0.23147911 2.1328001
-0.24124096 0.2286519 2.0241001
-0.23059779 0.22713871 1.9348
-0.23102686 0.23615187 1.9384
-0.21575935 0.22856848 1.8103
-0.22354208 0.24512547 1.8756
-0.21323265 0.24174951 1.7891001
-0.2132684 0.24972023 1.7894
-0.20461562 0.24719697 1.7168
-0.20421039 0.2543008 1.7134
-0.20204124 0.2591123 1.6952
-0.20556909 0.27128059 1.7248
-0.19789363 0.2685101 1.6604
-0.19289979 0.26890707 1.6185
-0.19376984 0.27732509 1.6258
-0.19274487 0.28302518 1.6172
-0.18739349 0.28213531 1.5723
-0.18996786 0.29307503 1.5939
-0.18658304 0.29479095 1.5655
-0.18846615 0.30477414 1.5813
-0.17984912 0.29752681 1.5089999
-0.17782298 0.30078712 1.492
-0.17450966 0.30167165 1.4642
-0.17205447 0.30382508 1.4436001
-0.17441432 0.31447768 1.4634
-0.17209022 0.31668624 1.4439
-0.17147046 0.32192174 1.4387
-0.16484381 0.31561032 1.3831
-0.1630203 0.31818077 1.3678
-0.16465312 0.32749018 1.3815
-0.16060086 0.32540211 1.3475
-0.15614335 0.32217661 1.3101
-0.15839595 0.33271426 1.329
-0.15157861 0.32403061 1.2718
-0.1526036 0.33189616 1.2804
-0.15399803 0.34065521 1.2921
-0.14787197 0.33260238 1.2407
-0.14762169 0.33752859 1.2386
-0.14826527 0.34451324 1.244
-0.14745483 0.34811303 1.2372
-0.14520223 0.3481943 1.2183
-0.14278279 0.34770176 1.198
-0.14188892 0.35080102 1.1905
-0.1431165 0.35915771 1.2007999
-0.1376102 0.3504563 1.1546
-0.13730031 0.35477248 1.152
-0.13578668 0.35591048 1.1393
-0.48345059 -1.3545458 4.2151999
-0.4883709 -1.3494607 4.2581
-0.48928842 -1.3330897 4.2660999
-0.48700607 -1.3080531 4.2462001
-0.48532009 -1.2847718 4.2315001
-0.49006835 -1.2784052 4.2729001
-0.4864555 -1.2501838 4.2413998
-0.49397936 -1.2504324 4.3070002
-0.48025072 -1.1971233 4.1873002
-0.4889214 -1.1998446 4.2628999
-0.48561826 -1.172974 4.2340999
-0.48254457 -1.1469039 4.2073002
-0.48597381 -1.1362762 4.2371998
-0.49936989 -1.1483023 4.3540001
-0.48855439 -1.1045541 4.2596998
-0.48840532 -1.0853448 4.2584
-0.49261454 -1.0756638 4.2951002
-0.49180022 -1.0548823 4.2880001
-0.48936871 -1.0307574 4.2667999
-0.48879525 -1.0106622 4.2617998
-0.49317652 -1.0006646 4.3000002
-0.4894146 -0.97412038 4.2672
-0.49139878 -0.95908183 4.2845001
-0.49599797 -0.94889259 4.3246002
-0.49673194 -0.93110281 4.3309999
-0.49369264 -0.90632921 4.3045001
-0.49745449 -0.89401346 4.3372998
-0.49514922 -0.87073767 4.3172002
-0.49216723 -0.84647614 4.2912002
-0.49368113 -0.83000386 4.3044
-0.49215576 -0.80842215 4.2911
-0.49446106 -0.79310268 4.3112001
-0.49914053 -0.78132135 4.3520002
-0.49971396 -0.76290977 4.3569999
-0.50128525 -0.74593872 4.3706999
-0.49243098 -0.7137354 4.2934999
-0.49712193 -0.70132548 4.3344002
-0.49896848 -0.68465012 4.3505001
-0.49973691 -0.66639447 4.3572001
-0.4968811 -0.64338654 4.3323002
-0.49810827 -0.62572843 4.3429999
-0.49912906 -0.60772413 4.3519001
-0.50547147 -0.59591484 4.4071999
-0.50056267 -0.5707857 4.3643999
-0.50307447 -0.55421084 4.3863001
-0.48917374 -0.51999521 4.2651
-0.50369376 -0.51596713 4.3916998
-0.50273037 -0.49555454 4.3832998
-0.50472599 -0.47801885 4.4007001
-0.50332677 -0.45724487 4.3885002
-0.50565505 -0.43982121 4.4088001
-0.50354469 -0.41852841 4.3903999
-0.50187021 -0.39774412 4.3758001
-0.49896848 -0.37616408 4.3505001
-0.50071174 -0.35813054 4.3656998
-0.50550592 -0.34202653 4.4074998
-0.5059188 -0.32275698 4.4110999
-0.5098986 -0.30559322 4.4457998
-0.51158458 -0.28683579 4.4604998
-0.51086199 -0.2666907 4.4541998
-0.5148533 -0.24888015 4.4889998
-0.50642347 -0.22523671 4.4155002
-0.5062629 -0.20560306 4.4141002
-0.50559765 -0.18579635 4.4082999
-0.50183576 -0.16502278 4.3755002
-0.49966806 -0.14500253 4.3565998
-0.49608967 -0.12479495 4.3253999
-0.48345059 -0.10293473 4.2151999
-0.48724693 -0.084915578 4.2483001
-0.47789949 -0.064820282 4.1668
-0.48659316 -0.047197264 4.2426
-0.47851887 -0.027923895 4.1722002
-0.47768158 -0.0094171921 4.1648998
-0.47474545 0.0089850826 4.1392999
-0.4704445 0.027081883 4.1018
-0.46470988 0.044708371 4.0517998
-0.45461696 0.061303981 3.9638
-0.44208112 0.076695777 3.8545001
-0.41465822 0.087960824 3.6154001
-0.42753816 0.1072133 3.7277
-0.37268084 0.10785736 3.2493999
-0.37903482 0.12434234 3.3048
-0.36187688 0.13269678 3.1552
-0.37242854 0.15095679 3.2472
-0.36782938 0.1633057 3.2070999
-0.337046 0.16266239 2.9387
-0.31362584 0.1634782 2.7344999
-0.31491038 0.17631605 2.7456999
-0.29362354 0.17574346 2.5601001
-0.29756895 0.18960312 2.5945001
-0.30370498 0.20524813 2.648
-0.28482664 0.20349574 2.4834001
-0.25394002 0.191241 2.2140999
-0.25533926 0.20216121 2.2263
-0.24494815 0.20339909 2.1357
-0.23236643 0.20193028 2.026
-0.23275639 0.21126299 2.0294001
-0.23480937 0.22219953 2.0473001
-0.22352365 0.22015694 1.9489
-0.21345367 0.21848659 1.8611
-0.21638979 0.22985335 1.8867
-0.21781197 0.23978037 1.8990999
-0.21047167 0.23983248 1.8351001
-0.21457766 0.25280261 1.8709
-0.20963442 0.25507915 1.8278
-0.20177801 0.25331643 1.7593
-0.19860104 0.25700203 1.7316
-0.19161627 0.25536746 1.6707
-0.19580255 0.26851243 1.7072001
-0.18714328 0.2638689 1.6317
-0.19613515 0.28412604 1.7101001
-0.188921 0.28097546 1.6472
-0.18297996 0.27920997 1.5954
-0.18669598 0.29209429 1.6278
-0.18714328 0.30002543 1.6317
-0.18096137 0.2971071 1.5778
-0.17932127 0.30134341 1.5635
-0.16982476 0.29194695 1.4807
-0.1737587 0.30542392 1.515
-0.17391926 0.31242648 1.5164
-0.16929717 0.31066513 1.4761
-0.16296616 0.30534464 1.4209
-0.15961716 0.30523738 1.3917
-0.15796559 0.30818295 1.3773
-0.15869962 0.31574723 1.3837
-0.1600071 0.32453135 1.3951
-0.15674984 0.32398179 1.3667001
-0.15275855 0.32163495 1.3319
-0.15365316 0.32945576 1.3397
-0.14907694 0.32540408 1.2998
-0.14919162 0.33141923 1.3008
-0.14884755 0.33640644 1.2977999
-0.1446957 0.33261406 1.2616
-0.14466128 0.33812472 1.2613
-0.1438355 0.34175244 1.2541
-0.13936251 0.3365097 1.2151
-0.1394428 0.34209168 1.2158
-0.137688 0.34310701 1.2005
-0.13516478 0.34204218 1.1785001
-0.13390316 0.34402367 1.1675
-0.13424724 0.35009506 1.1705
-0.13233188 0.35021347 1.1538
-0.13499273 0.36247158 1.177
-0.13126524 0.35753495 1.1445
-0.46408573 -1.3532925 4.2112999
-0.46957368 -1.3504114 4.2610998
-0.46493426 -1.3183717 4.2189999
-0.4708961 -1.3163397 4.2730999
-0.46788764 -1.2891135 4.2458
-0.47228462 -1.2822348 4.2856998
-0.46986023 -1.2567569 4.2637
-0.47304502 -1.2462517 4.2926002
-0.47090712 -1.2216816 4.2732
-0.46663135 -1.191823 4.2343998
-0.47370625 -1.1908425 4.2986002
-0.46551833 -1.151538 4.2242999
-0.46494529 -1.1314225 4.2191
-0.47142509 -1.1282321 4.2779002
-0.47084102 -1.1078992 4.2726002
-0.47144711 -1.0903658 4.2781
-0.46783254 -1.0631918 4.2452998
-0.47372824 -1.0575391 4.2988
-0.47583309 -1.043102 4.3179002
-0.46933129 -1.0099746 4.2589002
-0.47099531 -0.99461412 4.2740002
-0.47673669 -0.98756611 4.3260999
-0.46740273 -0.9494338 4.2413998
-0.47937047 -0.95446569 4.3499999
-0.46844965 -0.91388243 4.2508998
-0.4789407 -0.91508824 4.3460999
-0.47695714 -0.8921172 4.3281002
-0.4750286 -0.86940646 4.3105998
-0.46927616 -0.84000599 4.2584
-0.47497353 -0.83110297 4.3101001
-0.47743097 -0.81620282 4.3323998
-0.47278056 -0.78923947 4.2902002
-0.48309526 -0.78703046 4.3838
-0.47845584 -0.76023078 4.3417001
-0.48142022 -0.74558032 4.3685999
-0.47999865 -0.72407532 4.3557
-0.47545838 -0.69810551 4.3144999
-0.47759628 -0.68203771 4.3339
-0.48042843 -0.66676152 4.3596001
-0.4799656 -0.64681709 4.3554001
-0.48165163 -0.62971932 4.3706999
-0.47944763 -0.60755652 4.3506999
-0.47440049 -0.58208251 4.3049002
-0.47257116 -0.56083322 4.2883
-0.48457196 -0.55558807 4.3972001
-0.5001322 -0.55331564 4.5384002
-0.47719952 -0.50875348 4.3302999
-0.48499072 -0.49755561 4.401
-0.48331565 -0.47640035 4.3857999
-0.48396581 -0.45757824 4.3916998
-0.48637921 -0.44030005 4.4136
-0.48270956 -0.41756558 4.3803
-0.48276463 -0.39819857 4.3807998
-0.48295203 -0.37893093 4.3825002
-0.48059374 -0.35775325 4.3611002
-0.48169571 -0.33920187 4.3710999
-0.48242304 -0.32031313 4.3776999
-0.48782286 -0.30428034 4.4267001
-0.4881314 -0.28484231 4.4295001
-0.48351401 -0.26270309 4.3875999
-0.488462 -0.24574766 4.4324999
-0.48269853 -0.22343603 4.3801999
-0.48724982 -0.20594774 4.4215002
-0.49301329 -0.18855698 4.4738002
-0.48805428 -0.16703299 4.4288001
-0.47138101 -0.14236982 4.2775002
-0.48075899 -0.12586823 4.3625998
-0.44859162 -0.099406064 4.0707002
-0.4352684 -0.078949124 3.9498
-0.46231151 -0.065262087 4.1952
-0.46583793 -0.047025945 4.2272
-0.45740762 -0.027779998 4.1507001
-0.45185351 -0.0092711253 4.1002998
-0.45593092 0.0089807417 4.1373
-0.43606186 0.02612585 3.957
-0.45565543 0.045624211 4.1348
-0.41297492 0.057958692 3.7474999
-0.43784711 0.079057641 3.9732001
-0.39308381 0.086783275 3.5669999
-0.39759099 0.1037677 3.6078999
-0.37191439 0.11202309 3.3749001
-0.3702834 0.12642299 3.3601
-0.34313008 0.13095142 3.1136999
-0.34714139 0.14644277 3.1501
-0.34948865 0.16148786 3.1714001
-0.32393324 0.16270667 2.9395001
-0.29671383 0.16096729 2.6925001
-0.30771178 0.17930849 2.7923
-0.2912589 0.18143429 2.6429999
-0.27600721 0.18303333 2.5046
-0.27536803 0.19368355 2.4988
-0.27050823 0.20114398 2.4547
-0.24545974 0.19238979 2.2274001
-0.26071143 0.21482861 2.3657999
-0.25214887 0.21791331 2.2881
-0.24131621 0.21825613 2.1898
-0.22683591 0.2142819 2.0583999
-0.21954067 0.21621937 1.9922
-0.22037819 0.22590685 1.9998
-0.22174469 0.23622522 2.0122001
-0.20983203 0.23197316 1.9040999
-0.20507139 0.23495725 1.8609
-0.19839327 0.23528439 1.8003
-0.20609626 0.25270802 1.8702
-0.1951644 0.24715242 1.771
-0.19259673 0.25164616 1.7477
-0.19288327 0.25977746 1.7503
-0.18988581 0.26337683 1.7230999
-0.1881116 0.26848096 1.707
-0.18914747 0.27756608 1.7164
-0.18357135 0.27676576 1.6658
-0.17987965 0.27843386 1.6323
-0.18212773 0.28923801 1.6526999
-0.1758904 0.28640601 1.5961
-0.17655161 0.29458278 1.6021
-0.17467821 0.29848173 1.5851001
-0.16913514 0.29581189 1.5348001
-0.1681764 0.30089837 1.5261
-0.16330555 0.29875097 1.4819
-0.16274352 0.30426764 1.4768
-0.16072688 0.306961 1.4585
-0.16268843 0.31724983 1.4763
-0.15366304 0.30582958 1.3944
-0.15918407 0.32321954 1.4445
-0.15223044 0.31522238 1.3814
-0.15171251 0.32025111 1.3767
-0.14911176 0.32075781 1.3530999
-0.14560741 0.3190752 1.3213
-0.14525476 0.32414395 1.3181
-0.14591597 0.33148757 1.3241
-0.14510049 0.33547026 1.3167
-0.14201489 0.33404762 1.2887
-0.13769504 0.32942396 1.2495
-0.13956845 0.33951873 1.2665
-0.13694568 0.33864588 1.2427
-0.14052719 0.35315377 1.2752
-0.13630652 0.3480286 1.2369
-0.13462046 0.34913749 1.2216001
-0.13366172 0.35202628 1.2129
-0.1325487 0.35442543 1.2028
-0.1303447 0.35377398 1.1828001
-0.1289672 0.35522172 1.1703
-0.12686238 0.35452613 1.1512001
-0.12792028 0.36262694 1.1608
-0.44850853 -1.3634471 4.2428999
-0.44852972 -1.344707 4.2431002
-0.45237747 -1.3372771 4.2795
-0.44944936 -1.3097782 4.2518001
-0.44801173 -1.2868061 4.2382002
-0.44636267 -1.263356 4.2226
-0.454777 -1.268105 4.3021998
-0.45074958 -1.2379774 4.2641001
-0.45125696 -1.2204522 4.2688999
-0.4522506 -1.2041792 4.2782998
-0.45706034 -1.1978236 4.3238001
-0.45206037 -1.1657678 4.2765002
-0.44703922 -1.1340774 4.2290001
-0.45156351 -1.1266233 4.2718
-0.44871998 -1.1007165 4.2449002
-0.45298001 -1.0921754 4.2852001
-0.44882569 -1.0633421 4.2459002
-0.44950217 -1.0460997 4.2522998
-0.45764172 -1.0458559 4.3292999
-0.45083416 -1.0113975 4.2649002
-0.45144722 -0.99384612 4.2707
-0.45387855 -0.98016989 4.2937002
-0.45357198 -0.96049207 4.2908001
-0.45488271 -0.94419694 4.3031998
-0.45536897 -0.92611516 4.3077998
-0.45635208 -0.90898222 4.3171
-0.45605612 -0.88927269 4.3143001
-0.45458674 -0.86734921 4.3003998
-0.45539016 -0.8497901 4.3080001
-0.45582354 -0.83148861 4.3120999
-0.45118296 -0.80410784 4.2681999
-0.45876223 -0.7983824 4.3399
-0.4560667 -0.77457094 4.3144002
-0.4588151 -0.76000315 4.3404002
-0.45880452 -0.74075049 4.3403001
-0.45680663 -0.71837342 4.3214002
-0.45860365 -0.70197266 4.3383999
-0.4590371 -0.68339115 4.3425002
-0.45739859 -0.66177565 4.3270001
-0.46175376 -0.64871794 4.3681998
-0.45713434 -0.62306297 4.3245001
-0.46116179 -0.6092183 4.3625998
-0.46308565 -0.59234518 4.3807998
-0.45889962 -0.56775159 4.3411999
-0.46738803 -0.55865836 4.4215002
-0.46363539 -0.5347352 4.3860002
-0.46227172 -0.51378191 4.3730998
-0.45763114 -0.48943824 4.3291998
-0.46466073 -0.47747573 4.3957
-0.46358252 -0.45693228 4.3855
-0.46630979 -0.4400706 4.4113002
-0.46285313 -0.41740355 4.3786001
-0.46146834 -0.39680788 4.3655
-0.46491441 -0.38027975 4.3980999
-0.46447045 -0.36044389 4.3938999
-0.467906 -0.34349322 4.4264002
-0.46523157 -0.3220253 4.4011002
-0.47337106 -0.30781344 4.4780998
-0.46185949 -0.2809647 4.3692002
-0.46641549 -0.264182 4.4123001
-0.46660578 -0.24472754 4.4141002
-0.46103495 -0.22247705 4.3614001
-0.4622083 -0.20366538 4.3724999
-0.46602434 -0.185809 4.4085999
-0.45924848 -0.1638536 4.3445001
-0.46177492 -0.14539528 4.3684001
-0.46583408 -0.12714347 4.4067998
-0.45494619 -0.10509834 4.3038001
-0.44251493 -0.083674319 4.1862001
-0.41095048 -0.060476944 3.8875999
-0.43014708 -0.045268256 4.0692
-0.44117242 -0.027932595 4.1735001
-0.44406882 -0.0094985915 4.2009001
-0.43364602 0.0089047682 4.1023002
-0.3995446 0.024955237 3.7797
-0.42539021 0.044403829 4.0242
-0.39943889 0.058441233 3.7787001
-0.43577072 0.08202637 4.1223998
-0.38799068 0.089298941 3.6703999
-0.36620426 0.099637583 3.4642999
-0.37608799 0.11809409 3.5578001
-0.38987231 0.13876767 3.6882
-0.36139458 0.14378288 3.4188001
-0.35086605 0.15430395 3.3192
-0.33590838 0.16180867 3.1777
-0.3339422 0.17486192 3.1591001
-0.30124673 0.17037125 2.8498001
-0.31076044 0.18878026 2.9398
-0.32033759 0.20802818 3.0304
-0.2598303 0.17962785 2.4579999
-0.27209243 0.19951235 2.5739999
-0.24858296 0.19269571 2.3515999
-0.25647935 0.2095696 2.4263
-0.23008406 0.19764814 2.1766
-0.2324625 0.20943716 2.1991
-0.23160626 0.21837573 2.191
-0.21744138 0.21413615 2.0569999
-0.21054922 0.21617594 1.9918
-0.21233568 0.22691222 2.0086999
-0.20892133 0.2320224 1.9764
-0.20550697 0.2368463 1.9441
-0.20372048 0.24332827 1.9272
-0.1987945 0.24577893 1.8806
-0.1934351 0.24726255 1.8299
-0.19498901 0.25742367 1.8446
-0.19039071 0.25933507 1.8011
-0.18512645 0.25992587 1.7513
-0.18546472 0.26817635 1.7545
-0.18299115 0.27227145 1.7311
-0.1819552 0.27835849 1.7213
-0.1740271 0.27352592 1.6463
-0.1756233 0.28339764 1.6614
-0.16608843 0.27497473 1.5712
-0.17125756 0.29071259 1.6201
-0.16619414 0.28908497 1.5721999
-0.17094043 0.30450749 1.6171
-0.16136329 0.29421216 1.5265
-0.1630652 0.30415165 1.5426
-0.15637387 0.2982268 1.4793
-0.15979882 0.31145814 1.5117
-0.1519447 0.30252019 1.4374
-0.1555282 0.31617537 1.4713
-0.15041193 0.31208038 1.4229
-0.14911172 0.3156341 1.4105999
-0.15154301 0.32713392 1.4335999
-0.1441223 0.31715721 1.3634
-0.14131047 0.31689385 1.3368
-0.14117306 0.32250431 1.3355
-0.13808639 0.32124212 1.3063
-0.14030625 0.33228865 1.3273
-0.13896376 0.33493522 1.3146
-0.13774812 0.33778027 1.3031
-0.13283269 0.33129585 1.2566
-0.13639505 0.34589896 1.2903
-0.12955575 0.33398598 1.2256
-0.1305494 0.34202078 1.235
-0.12945004 0.34456772 1.2246
-0.12600397 0.34067771 1.192
-0.12568684 0.34508964 1.189
-0.12350925 0.34428889 1.1684
-0.12588768 0.35619664 1.1909
-0.1237101 0.35522172 1.1703
-0.12101454 0.35255516 1.1447999
-0.11941834 0.35291147 1.1296999
-0.4356131 -1.3830173 4.3038001
-0.42890248 -1.3429323 4.2375002
-0.43031949 -1.3285275 4.2515001
-0.43107858 -1.3119961 4.2589998
-0.43246526 -1.2972809 4.2726998
-0.43329525 -1.2807987 4.2809
-0.43057254 -1.2538979 4.2540002
-0.43112922 -1.2366419 4.2595
-0.43749571 -1.2357476 4.3224001
-0.43690863 -1.2149591 4.3165998
-0.42680731 -1.1681814 4.2168002
-0.4322021 -1.164023 4.2701001
-0.43037009 -1.1402452 4.2519999
-0.4326171 -1.1272563 4.2742
-0.43093687 -1.1040095 4.2575998
-0.43250573 -1.0890914 4.2730999
-0.4347831 -1.075789 4.2955999
-0.43510699 -1.0575391 4.2988
-0.4321515 -1.0314338 4.2695999
-0.4300766 -1.0076506 4.2491002
-0.43551189 -1.0013162 4.3028002
-0.43802202 -0.98790854 4.3276
-0.43639246 -0.96512574 4.3115001
-0.43624061 -0.94568902 4.3099999
-0.43673655 -0.92764157 4.3148999
-0.4373135 -0.90971911 4.3206
-0.44183788 -0.89978492 4.3653002
-0.43647343 -0.86974937 4.3123002
-0.43353814 -0.84491777 4.2832999
-0.43550175 -0.82967603 4.3027
-0.43675685 -0.81294364 4.3151002
-0.43746534 -0.7951079 4.3221002
-0.44034997 -0.78106993 4.3505998
-0.4377791 -0.75734162 4.3252001
-0.44265774 -0.74639958 4.3734002
-0.44056258 -0.72357666 4.3527002
-0.43669608 -0.69810551 4.3144999
-0.43811309 -0.68118787 4.3284998
-0.44132164 -0.66685325 4.3601999
-0.43976292 -0.64524287 4.3448
-0.43935806 -0.62541139 4.3407998
-0.44282979 -0.61096394 4.3751001
-0.43784997 -0.58492196 4.3259001
-0.44635209 -0.57673633 4.4099002
-0.43640259 -0.54477245 4.3116002
-0.44332576 -0.53400373 4.3800001
-0.44501603 -0.51655459 4.3966999
-0.44617999 -0.4983696 4.4081998
-0.44577515 -0.47839904 4.4042001
-0.44600794 -0.4591203 4.4064999
-0.44699985 -0.44056937 4.4162998
-0.44399375 -0.41816616 4.3866
-0.44294113 -0.39778048 4.3762002
-0.4481436 -0.38283047 4.4275999
-0.44357878 -0.35950875 4.3825002
-0.44246539 -0.33923292 4.3715
-0.44752622 -0.32351795 4.4215002
-0.44526908 -0.30239007 4.3992
-0.44865984 -0.2850481 4.4327002
-0.4463622 -0.26404428 4.4099998
-0.44893309 -0.24590845 4.4354
-0.45091692 -0.22725162 4.4549999
-0.44804239 -0.20618528 4.4266
-0.44567394 -0.18558142 4.4032001
-0.44191882 -0.16466823 4.3660998
-0.45141289 -0.1484407 4.4598999
-0.44496545 -0.12683766 4.3962002
-0.42493477 -0.10252204 4.1982999
-0.43591672 -0.08608488 4.3067999
-0.42778909 -0.065748997 4.2265
-0.40890217 -0.044942304 4.0398998
-0.40598717 -0.026845675 4.0110998
-0.43494508 -0.0097163338 4.2972002
-0.41785979 0.0089614224 4.1283998
-0.41218159 0.026887111 4.0723
-0.40558234 0.044215146 4.0071001
-0.37859815 0.057850432 3.7405
-0.39995471 0.078625858 3.9514999
-0.36013636 0.086566739 3.5581
-0.35036904 0.099559933 3.4616001
-0.35536909 0.11654066 3.5109999
-0.33902273 0.12602417 3.3494999
-0.32562172 0.13530007 3.2170999
-0.33204895 0.1525095 3.2806001
-0.3144981 0.15821879 3.1071999
-0.31528759 0.17242092 3.115
-0.30105665 0.17782028 2.9744
-0.28792894 0.18267338 2.8447001
-0.2744672 0.18615034 2.7117
-0.27042869 0.19525211 2.6717999
-0.24720976 0.18931195 2.4424
-0.23608613 0.19113062 2.3325
-0.23722988 0.20244373 2.3438001
-0.23111644 0.20734623 2.2834001
-0.22156164 0.20847526 2.1889999
-0.21663244 0.21332249 2.1403
-0.21372753 0.21982008 2.1115999
-0.2058327 0.22071263 2.0336001
-0.20378815 0.22744317 2.0134001
-0.20121725 0.23338421 1.988
-0.1925633 0.23177823 1.9025
-0.19702691 0.24577773 1.9466
-0.19069079 0.24622329 1.8839999
-0.18074127 0.24129008 1.7857
-0.17337276 0.23904426 1.7129
-0.1799619 0.25600898 1.778
-0.17552865 0.25738791 1.7342
-0.17621693 0.26611286 1.7410001
-0.177472 0.27577886 1.7534
-0.1730185 0.27643409 1.7094001
-0.16585241 0.2722466 1.6386
-0.16504268 0.27814385 1.6306
-0.16407101 0.28369021 1.6210001
-0.16080174 0.28507817 1.5887001
-0.15868632 0.28827596 1.5678
-0.15871668 0.29528055 1.5681
-0.1573199 0.29957023 1.5543
-0.15353443 0.29908442 1.5168999
-0.155164 0.30905274 1.533
-0.15107489 0.30752292 1.4926
-0.14632787 0.30426705 1.4457
-0.1476133 0.31340322 1.4584
-0.14703637 0.31861633 1.4527
-0.14503229 0.32062393 1.4329
-0.14164156 0.31932983 1.3994
-0.13997149 0.32169336 1.3829
-0.13839254 0.32412401 1.3673
-0.13573055 0.32383245 1.341
-0.13508277 0.32820159 1.3346
-0.1334127 0.32998544 1.3181
-0.13385805 0.33694801 1.3225
-0.12929322 0.33111849 1.2774
-0.12860495 0.33498684 1.2706
-0.12696525 0.33627501 1.2544
-0.12791668 0.34439579 1.2638
-0.12167166 0.33290946 1.2021
-0.12373646 0.34397686 1.2225
-0.12143886 0.34290695 1.1998
-0.12205628 0.3499946 1.2059
-0.12052792 0.35088938 1.1908
-0.11861494 0.35051379 1.1719
-0.11777484 0.35318804 1.1636
-0.118453 0.36040822 1.1703
-0.11715743 0.36159605 1.1575
-0.41185004 -1.3682995 4.2579999
-0.4091998 -1.3407454 4.2305999
-0.41004127 -1.324715 4.2392998
-0.41332993 -1.3164014 4.2733002
-0.41395861 -1.2994367 4.2797999
-0.41573834 -1.2859747 4.2982001
-0.4124594 -1.2569338 4.2642999
-0.4152644 -1.246455 4.2933002
-0.41121167 -1.2154491 4.2514
-0.41649282 -1.2119758 4.3060002
-0.41119233 -1.1777114 4.2512002
-0.41429713 -1.1676214 4.2832999
-0.41222727 -1.1429 4.2618999
-0.41803068 -1.1398364 4.3218999
-0.41511932 -1.1128777 4.2918
-0.41547716 -1.0948005 4.2954998
-0.41270122 -1.0685762 4.2667999
-0.41151151 -1.0466409 4.2544999
-0.41634771 -1.0398649 4.3045001
-0.41545784 -1.0186065 4.2953
-0.416251 -1.0014791 4.3035002
-0.41292369 -0.97455418 4.2691002
-0.41764382 -0.9665584 4.3179002
-0.41533211 -0.94217837 4.2940001
-0.41499358 -0.92239594 4.2905002
-0.42077765 -0.91597253 4.3502998
-0.42018765 -0.89543575 4.3442001
-0.41539982 -0.86619961 4.2947001
-0.41924939 -0.85501736 4.3344998
-0.41640574 -0.8301388 4.3051
-0.41929778 -0.81669265 4.335
-0.41863039 -0.79621166 4.3281002
-0.41540948 -0.77105206 4.2947998
-0.42111617 -0.76234943 4.3537998
-0.42345688 -0.74718457 4.3779998
-0.41997483 -0.72179788 4.342
-0.42011026 -0.70278168 4.3434
-0.42056489 -0.68427247 4.3481002
-0.41978142 -0.66376388 4.3400002
-0.42095175 -0.64632696 4.3520999
-0.41998452 -0.62559879 4.3421001
-0.42271212 -0.61029357 4.3702998
-0.42304102 -0.59138519 4.3737001
-0.42388248 -0.57313979 4.3824
-0.4262135 -0.55676305 4.4064999
-0.42035207 -0.52984625 4.3459001
-0.41789526 -0.5076021 4.3204999
-0.4262909 -0.49826786 4.4073
-0.42857361 -0.48129928 4.4309001
-0.42624253 -0.45915154 4.4067998
-0.42293459 -0.43620989 4.3726001
-0.42534301 -0.41920525 4.3975
-0.42926034 -0.40339789 4.4380002
-0.42464659 -0.37960532 4.3902998
-0.4268519 -0.36201891 4.4130998
-0.42432743 -0.34043574 4.3870001
-0.42417264 -0.32087651 4.3853998
-0.43717235 -0.31067982 4.5198002
-0.42704538 -0.28391632 4.4151001
-0.43415454 -0.26875037 4.4885998
-0.43101102 -0.2470561 4.4561
-0.43016955 -0.22686394 4.4474001
-0.43336144 -0.20869122 4.4804001
-0.42210275 -0.18392923 4.3639998
-0.41897857 -0.16337083 4.3316998
-0.41896895 -0.14417045 4.3316002
-0.42256707 -0.12604712 4.3688002
-0.41691837 -0.10525951 4.3104
-0.4240953 -0.087639965 4.3846002
-0.40823257 -0.065657221 4.2206001
-0.39827001 -0.045806687 4.1176
-0.40039793 -0.027705707 4.1395998
-0.4028064 -0.0094162887 4.1645002
-0.40377361 0.0090614911 4.1745
-0.37037486 0.025282059 3.8292
-0.38733053 0.044186454 4.0044999
-0.37706816 0.060292508 3.8984001
-0.36235645 0.074542843 3.7463
-0.35699797 0.089797698 3.6909001
-0.34149313 0.10154446 3.5306001
-0.34112558 0.1170651 3.5267999
-0.32546601 0.12660359 3.3649001
-0.31326914 0.13621271 3.2388
-0.30751407 0.14780024 3.1793001
-0.31268877 0.16461435 3.2328
-0.32143262 0.18394516 3.3232
-0.30147848 0.18633944 3.1169
-0.28534496 0.18944168 2.9500999
-0.2771621 0.19670828 2.8655
-0.22987384 0.17367923 2.3766
-0.24119052 0.19328049 2.4935999
-0.21571347 0.18274792 2.2302001
-0.22329661 0.19940336 2.3085999
-0.21374997 0.20067197 2.2098999
-0.22753313 0.22403711 2.3524001
-0.20491908 0.21115966 2.1185999
-0.19954124 0.21476077 2.063
-0.19586575 0.21977925 2.0250001
-0.19440523 0.2270478 2.0099001
-0.18645452 0.2263052 1.9277
-0.18960771 0.2388199 1.9603
-0.18203424 0.23762132 1.882
-0.17937434 0.24236789 1.8545001
-0.18062207 0.25232968 1.8674001
-0.16833813 0.24288203 1.7404
-0.17506045 0.26060218 1.8099
-0.1648851 0.25300956 1.7047
-0.16245733 0.25672781 1.6796
-0.16654876 0.27082446 1.7219
-0.16260242 0.27185756 1.6811
-0.16325048 0.28042099 1.6878
-0.15756311 0.27787095 1.6289999
-0.1608227 0.29098812 1.6627001
-0.15694407 0.29116121 1.6226
-0.15543519 0.29548377 1.607
-0.15013471 0.29228649 1.5522
-0.14701054 0.29294008 1.5199
-0.14313191 0.29176947 1.4798
-0.14382833 0.29977912 1.487
-0.13977559 0.29773644 1.4450999
-0.1421937 0.30940238 1.4701
-0.13935968 0.30962107 1.4408
-0.13782178 0.31251904 1.4249001
-0.13370134 0.30930173 1.3823
-0.13302428 0.31383044 1.3753
-0.12884581 0.30987614 1.3321
-0.133682 0.3276324 1.3821
-0.13251165 0.33083555 1.37
-0.13056749 0.33196414 1.3499
-0.12920369 0.33441666 1.3358001
-0.12483176 0.32882047 1.2905999
-0.12468669 0.3341513 1.2891001
-0.12431914 0.33886242 1.2853
-0.12420307 0.34423688 1.2841001
-0.1222299 0.34436855 1.2637
-0.12023739 0.344264 1.2431
-0.11514971 0.33497298 1.1905
-0.11720993 0.34633657 1.2118
-0.11770322 0.3531872 1.2169
-0.11709386 0.35672382 1.2106
-0.11241242 0.34761253 1.1622
-0.11171602 0.35057768 1.155
-0.11097124 0.35332507 1.1473
-0.11138716 0.35975292 1.1516
-0.39709446 -1.3835313 4.3053999
-0.39443821 -1.3553237 4.2765999
-0.39436445 -1.3361208 4.2758002
-0.39793378 -1.3290931 4.3144999
-0.39338678 -1.2950038 4.2652001
-0.39461344 -1.2800807 4.2785001
-0.3977032 -1.2709937 4.3119998
-0.39061058 -1.2295579 4.2350998
-0.40039638 -1.2411222 4.3411999
-0.39882845 -1.2170984 4.3242002
-0.39393094 -1.1832242 4.2711
-0.38966063 -1.1516744 4.2248001
-0.38920867 -1.1316371 4.2199001
-0.39615372 -1.1327946 4.2951999
-0.3901771 -1.0969566 4.2304001
-0.39389405 -1.0884798 4.2707
-0.39542508 -1.0737103 4.2873001
-0.39441052 -1.0520039 4.2763
-0.39436445 -1.0329317 4.2758002
-0.39512995 -1.0159506 4.2841001
-0.39739886 -1.0026892 4.3087001
-0.39545277 -0.97877735 4.2876
-0.39764786 -0.96510333 4.3113999
-0.39211395 -0.93283117 4.2514
-0.38928244 -0.90738988 4.2206998
-0.39751875 -0.90748721 4.3099999
-0.3965134 -0.88613963 4.2990999
-0.39969543 -0.87404537 4.3336
-0.40096822 -0.85756207 4.3474002
-0.39922503 -0.83465093 4.3284998
-0.39536974 -0.80759311 4.2866998
-0.40223181 -0.80228245 4.3611002
-0.39763862 -0.77401435 4.3112998
-0.39615372 -0.75208861 4.2951999
-0.39932647 -0.73892426 4.3295999
-0.39735273 -0.71617907 4.3081999
-0.39854255 -0.69917351 4.3211002
-0.40122649 -0.68460292 4.3502002
-0.39727896 -0.65877801 4.3074002
-0.4044269 -0.65119809 4.3849001
-0.40311721 -0.62971932 4.3706999
-0.39981532 -0.60535014 4.3348999
-0.39928958 -0.58536816 4.3291998
-0.40034103 -0.56767309 4.3406
-0.39743575 -0.5444566 4.3091002
-0.40567201 -0.53624696 4.3983998
-0.40747055 -0.51904535 4.4179001
-0.40478662 -0.49617636 4.3888001
-0.40224099 -0.47372821 4.3611999
-0.40548757 -0.45806795 4.3964
-0.40356913 -0.43650916 4.3755999
-0.40403953 -0.41760373 4.3807001
-0.40806085 -0.4021526 4.4243002
-0.40527546 -0.37993392 4.3941002
-0.40323713 -0.35864741 4.3720002
-0.40575504 -0.34139025 4.3993001
-0.4042978 -0.32073751 4.3835001
-0.39858863 -0.29705602 4.3216
-0.40949965 -0.28551108 4.4398999
-0.41465539 -0.26918146 4.4958
-0.40745208 -0.24492711 4.4176998
-0.40998846 -0.22675171 4.4452
-0.40503564 -0.20455037 4.3915
-0.41176856 -0.18816501 4.4645
-0.40587494 -0.16596942 4.4006
-0.39803523 -0.14363791 4.3155999
-0.39434597 -0.12335814 4.2756
-0.39426297 -0.10438772 4.2747002
-0.38419127 -0.083260566 4.1655002
-0.38476309 -0.064896509 4.1717
-0.38989121 -0.047027059 4.2273002
-0.40246233 -0.029204903 4.3635998
-0.37748602 -0.0092541687 4.0928001
-0.38526118 0.0090671349 4.1771002
-0.36332846 0.026008986 3.9393001
-0.36567113 0.043747295 3.9647
-0.37428561 0.062762424 4.0581002
-0.33220023 0.071667619 3.6018
-0.34597045 0.091262333 3.7511001
-0.32464647 0.10123672 3.5199001
-0.32314306 0.11629502 3.5035999
-0.32935026 0.13435429 3.5709
-0.30358994 0.13843328 3.2916
-0.29871088 0.15056163 3.2386999
-0.29267895 0.16158462 3.1733
-0.28763387 0.17262018 3.1185999
-0.2907882 0.18848567 3.1528001
-0.27604032 0.19219008 2.9928999
-0.23830834 0.17737038 2.5838001
-0.2137747 0.1693822 2.3178
-0.21881056 0.18388622 2.3724
-0.21734406 0.19309723 2.3564999
-0.20334329 0.19042909 2.2047
-0.21331353 0.21001591 2.3127999
-0.19445215 0.20078959 2.1083
-0.19057842 0.20594695 2.0662999
-0.18762702 0.21177307 2.0343001
-0.18657558 0.21955134 2.0229001
-0.18741487 0.22954431 2.0320001
-0.17360778 0.2209754 1.8823
-0.18016545 0.23797929 1.9534
-0.17322041 0.23712891 1.8781
-0.1678433 0.23783287 1.8198
-0.17159712 0.25139731 1.8605
-0.16663507 0.25213453 1.8067
-0.16168222 0.25240931 1.753
-0.16714233 0.26896456 1.8122
-0.15693229 0.26007527 1.7015001
-0.15317845 0.26121449 1.6608
-0.15601918 0.27355558 1.6916
-0.15278186 0.2752206 1.6565
-0.15030083 0.27797329 1.6296
-0.14541253 0.2759198 1.5766
-0.14649165 0.28500637 1.5883
-0.14489605 0.28886434 1.571
-0.14672224 0.29955506 1.5908
-0.14531109 0.30365625 1.5755
-0.13959272 0.29841405 1.5135
-0.13435395 0.29367065 1.4567
-0.1358389 0.30344352 1.4728
-0.13523015 0.30858156 1.4662
-0.13409571 0.31243619 1.4539
-0.13407725 0.31883565 1.4536999
-0.1299545 0.31527612 1.409
-0.12815599 0.31707075 1.3895
-0.12606232 0.31794813 1.3668
-0.12803608 0.32907844 1.3882
-0.12449438 0.32595754 1.3498
-0.1212755 0.32335702 1.3149
-0.12468807 0.33844727 1.3519
-0.12196723 0.33692253 1.3224
-0.12085123 0.33964661 1.3103
-0.11930174 0.34102431 1.2934999
-0.11902505 0.34595257 1.2905
-0.116461 0.34409603 1.2627
-0.11342657 0.3405807 1.2298
-0.11222757 0.34237304 1.2168
-0.11115767 0.34445027 1.2052
-0.11263338 0.35443521 1.2212
-0.10851985 0.34670514 1.1766
-0.10817859 0.35081288 1.1729
-0.10678589 0.35142758 1.1578
-0.10682279 0.35668188 1.1582
-0.10781889 0.3651886 1.169
-0.34035081 -1.2465408 3.8791001
-0.39894331 -1.440986 4.5468998
-0.019776514 -0.070433982 0.2254
-0.37797356 -1.32706 4.3079
-0.38119361 -1.3191113 4.3446002
-0.38730025 -1.3206806 4.4141998
-0.38392231 -1.2897698 4.3757
-0.40094376 -1.3267008 4.5696998
-0.010063736 -0.032792021 0.1147
-0.37378839 -1.1990848 4.2602
-0.37678909 -1.189679 4.2944002
-0.37415689 -1.1624693 4.2644
-0.37059468 -1.1326829 4.2238002
-0.37139308 -1.116364 4.2329001
-0.37774545 -1.1163784 4.3053002
-0.37866673 -1.0999745 4.3158002
-0.37544665 -1.0716567 4.2790999
-0.37699965 -1.0570471 4.2968001
-0.37554318 -1.0339946 4.2802
-0.37799987 -1.0216657 4.3081999
-0.37697333 -0.99985015 4.2965002
-0.37786829 -0.98313755 4.3067002
-0.37592921 -0.95910412 4.2845998
-0.3735866 -0.93425745 4.2579002
-0.37896502 -0.92856604 4.3192
-0.37731549 -0.9054659 4.3003998
-0.3764118 -0.88428456 4.2901001
-0.37722775 -0.86714751 4.2993999
-0.37447277 -0.84189975 4.2680001
-0.38303614 -0.84180486 4.3656001
-0.37802619 -0.81170017 4.3084998
-0.37978977 -0.79630357 4.3285999
-0.3828519 -0.78338593 4.3635001
-0.3817288 -0.76180667 4.3506999
-0.38142172 -0.74192804 4.3471999
-0.37997401 -0.71991938 4.3306999
-0.38273779 -0.7058236 4.3621998
-0.3817288 -0.68468159 4.3506999
-0.38458911 -0.6703862 4.3832998
-0.38284311 -0.64800513 4.3634
-0.38291332 -0.62878287 4.3642001
-0.37979853 -0.60448432 4.3287001
-0.38560688 -0.59425169 4.3948998
-0.37027881 -0.55192697 4.2202001
-0.39335433 -0.56645417 4.4832001
-0.3813954 -0.5299682 4.3469
-0.36399665 -0.48740613 4.1486001
-0.38362399 -0.49431095 4.3723001
-0.38271147 -0.47380424 4.3618999
-0.38455406 -0.4566614 4.3829002
-0.38820401 -0.44138741 4.4245
-0.38203588 -0.41507751 4.3541999
-0.38705459 -0.40098 4.4113998
-0.38571221 -0.38010684 4.3961
-0.38529107 -0.36023062 4.3913002
-0.38385209 -0.33949676 4.3748999
-0.38530859 -0.32132286 4.3915
-0.3893446 -0.30502272 4.4375
-0.39332801 -0.28827626 4.4829001
-0.38786182 -0.26467896 4.4205999
-0.39228392 -0.2478822 4.4710002
-0.39086252 -0.22724143 4.4548001
-0.39110819 -0.20762923 4.4576001
-0.38825664 -0.18650442 4.4250998
-0.39244181 -0.16869244 4.4727998
-0.38298348 -0.1452821 4.3649998
-0.3835538 -0.12612501 4.3715
-0.38334322 -0.10669296 4.3691001
-0.347563 -0.079178981 3.9612999
-0.34717694 -0.061554998 3.9568999
-0.36898023 -0.046783429 4.2054
-0.36346141 -0.027725117 4.1424999
-0.37377083 -0.0096322224 4.2600002
-0.35474887 0.0087764813 4.0432
-0.3601273 0.027099708 4.1044998
-0.3390435 0.042638358 3.8642001
-0.35538936 0.062644877 4.0504999
-0.32855859 0.074511006 3.7447
-0.33990332 0.09425243 3.8740001
-0.30478993 0.099910818 3.4737999
-0.28804043 0.10896933 3.2829001
-0.29053223 0.1245869 3.3113
-0.30171904 0.14462401 3.4388001
-0.29393655 0.15574044 3.3501
-0.26736897 0.1551687 3.0473001
-0.2788541 0.17591915 3.1782
-0.27201918 0.18534704 3.1003001
-0.2596128 0.19000678 2.9589
-0.24737312 0.19354364 2.8194001
-0.24969822 0.20797515 2.8459001
-0.21860328 0.19311772 2.4914999
-0.21816459 0.20374975 2.4865
-0.21026804 0.20699567 2.3965001
-0.20429295 0.21143247 2.3283999
-0.19094776 0.20726575 2.1763
-0.19238669 0.21854515 2.1926999
-0.17251366 0.20468377 1.9662
-0.18155085 0.2245764 2.0692
-0.16485399 0.21224941 1.8789001
-0.17497037 0.23411207 1.9942
-0.16773185 0.23289905 1.9117
-0.16425736 0.23637135 1.8721
-0.16133563 0.24031602 1.8388
-0.16056353 0.24727607 1.83
-0.15703639 0.24977607 1.7898
-0.15293019 0.25096944 1.743
-0.15371105 0.26001492 1.7519
-0.15156144 0.26403406 1.7273999
-0.15017515 0.26920444 1.7115999
-0.14725342 0.27140477 1.6783
-0.14560392 0.27571905 1.6595
-0.14455982 0.28104371 1.6476001
-0.14487569 0.28897551 1.6512001
-0.1442264 0.29496536 1.6438
-0.14077824 0.2950241 1.6045001
-0.13646145 0.29287025 1.5553
-0.13698789 0.30091938 1.5613
-0.13275884 0.29833519 1.5131
-0.12953001 0.29762203 1.4763
-0.13120584 0.30809981 1.4954
-0.12719615 0.3051089 1.4497
-0.12786296 0.31316683 1.4572999
-0.12636261 0.31587476 1.4402
-0.12253717 0.31250149 1.3966
-0.12140533 0.31574723 1.3837
-0.12147552 0.32206556 1.3845
-0.11877314 0.32090008 1.3537
-0.12096663 0.3329365 1.3787
-0.11899249 0.33351341 1.3562
-0.11835198 0.33769619 1.3489
-0.11386849 0.33065489 1.2977999
-0.11518459 0.34029466 1.3128
-0.11158726 0.33530325 1.2718
-0.11114857 0.33959916 1.2668
-0.10905159 0.33870038 1.2429
-0.10590173 0.33426645 1.207
-0.10383986 0.33300337 1.1835001
-0.10591051 0.34499332 1.2071
-0.10338361 0.34198412 1.1783
-0.10434874 0.35044739 1.1892999
-0.1023395 0.34886873 1.1664
-0.10104096 0.34954569 1.1516
-0.1008918 0.35412577 1.1499
-0.10118134 0.36025277 1.1532
-0.35017243 -1.3517179 4.2063999
-0.37436417 -1.4251721 4.4970002
-0.36121938 -1.355901 4.3390999
-0.13531886 -0.50073957 1.6255
-0.33091727 -1.2069234 3.9751
-0.14311916 -0.51436591 1.7192
-0.38489497 -1.3628106 4.6234999
-0.055426206 -0.19329877 0.66579998
-0.0087992642 -0.030218979 0.1057
-0.36131093 -1.2216017 4.3401999
-0.35404345 -1.1781822 4.2529001
-0.35298619 -1.1558723 4.2402
-0.35697374 -1.1499259 4.2880998
-0.35422656 -1.1222188 4.2550998
-0.35610798 -1.1092216 4.2776999
-0.35713193 -1.0933987 4.29
-0.35451797 -1.0665227 4.2586002
-0.35776457 -1.0572438 4.2975998
-0.35507569 -1.030395 4.2652998
-0.35732341 -1.0178952 4.2923002
-0.35763973 -0.99975705 4.2961001
-0.35578331 -0.97562701 4.2737999
-0.35622451 -0.95787299 4.2790999
-0.35675731 -0.94031334 4.2855
-0.35843059 -0.92564225 4.3056002
-0.35977086 -0.90995073 4.3217001
-0.35924643 -0.88949943 4.3154001
-0.357032 -0.86500961 4.2887998
-0.35860541 -0.84973091 4.3077002
-0.35912153 -0.83183569 4.3139
-0.3600539 -0.81482756 4.3250999
-0.35963765 -0.7947399 4.3200998
-0.35873026 -0.77363735 4.3091998
-0.35701537 -0.75093299 4.2886
-0.36323395 -0.74467582 4.3632998
-0.36305913 -0.72498959 4.3611999
-0.36227661 -0.70414084 4.3518
-0.36387494 -0.68787622 4.3709998
-0.36041188 -0.66214269 4.3294001
-0.36576471 -0.65250498 4.3937001
-0.36309245 -0.62840825 4.3615999
-0.36265123 -0.60833853 4.3562999
-0.3627761 -0.58923531 4.3578
-0.36715493 -0.57680172 4.4103999
-0.36322567 -0.55129212 4.3632002
-0.36340877 -0.53222364 4.3653998
-0.36386666 -0.51352346 4.3709002
-0.36787087 -0.49959064 4.4190001
-0.36183539 -0.47213146 4.3464999
-0.36673868 -0.45900568 4.4053998
-0.36909461 -0.44230524 4.4337001
-0.36318401 -0.41588783 4.3627
-0.36537343 -0.39894393 4.3889999
-0.3689281 -0.383185 4.4317002
-0.36728814 -0.3619287 4.4120002
-0.36424962 -0.33954334 4.3755002
-0.3633838 -0.31939119 4.3650999
-0.38042456 -0.31411666 4.5697999
-0.37180847 -0.28720877 4.4663
-0.36962739 -0.26584649 4.4401002
-0.36387494 -0.24233796 4.3709998
-0.36897805 -0.22609368 4.4323001
-0.36321732 -0.20322753 4.3631001
-0.36486563 -0.18472584 4.3829002
-0.35723183 -0.16184337 4.2912002
-0.36504877 -0.14595111 4.3850999
-0.35077181 -0.12156934 4.2136002
-0.33666134 -0.098756485 4.0440998
-0.35072184 -0.084209993 4.2129998
-0.34977284 -0.065361649 4.2016001
-0.34583524 -0.046214964 4.1543002
-0.33721909 -0.027111381 4.0507998
-0.3436791 -0.009334662 4.1283998
-0.35254499 0.0091925999 4.2349
-0.34440339 0.02731495 4.1371002
-0.34590182 0.045848206 4.1550999
-0.3181138 0.05910008 3.8213
-0.33159158 0.079256617 3.9832001
-0.3081241 0.09005072 3.7012999
-0.29010102 0.1002272 3.4848001
