# .PCD v0.7 - Point Cloud Data file format
VERSION 0.7
FIELDS x y z
SIZE 4 4 4
TYPE F F F
COUNT 1 1 1
WIDTH 1574
HEIGHT 1
VIEWPOINT 0 0 0 1 0 0 0
POINTS 1574
DATA ascii
0.84654927 0.10936802 2.6005001
0.83733666 0.11957719 2.5722001
0.83691347 0.13091037 2.5709
0.76373363 0.12986091 2.3461001
0.77183938 0.14174686 2.3710001
0.79547304 0.1569166 2.4435999
0.78600007 0.16574843 2.4145
0.74924731 0.16819832 2.3016
0.76002252 0.18096407 2.3347001
0.7576136 0.19070452 2.3273001
0.72974789 0.19362493 2.2416999
0.75061458 0.20938027 2.3058
0.73889536 0.21617046 2.2697999
0.70243567 0.2150667 2.1578
0.6933859 0.22173557 2.1300001
0.68231767 0.22748508 2.096
0.68147135 0.23648034 2.0934
0.67343068 0.24285811 2.0687001
0.66763616 0.24985754 2.0509
0.64820182 0.2514089 1.9912
0.64530456 0.25907031 1.9823
0.63658029 0.26423407 1.9555
0.63039511 0.2702488 1.9365
0.61493236 0.27199155 1.8890001
0.61782956 0.28168407 1.8979
0.61779702 0.29007983 1.8978
0.58543903 0.28285655 1.7984
0.58495075 0.29058406 1.7969
0.56313998 0.28741571 1.7299
0.57026917 0.29881787 1.7517999
0.56134957 0.30178618 1.7244
0.55477381 0.3058036 1.7042
0.54116648 0.30567032 1.6624
0.53755307 0.31094748 1.6513
0.53895283 0.31909442 1.6556
0.51535171 0.31213695 1.5831
0.51792341 0.32074553 1.591
0.5013212 0.31728885 1.54
0.49887973 0.32253528 1.5325
0.50262338 0.33179826 1.544
0.48650947 0.32778421 1.4945
0.49695906 0.34159014 1.5266
0.47358578 0.33197159 1.4548
0.45262146 0.32343805 1.3904001
0.45382589 0.33047703 1.3941
0.45437932 0.33706591 1.3958
0.44018608 0.33252975 1.3522
0.43780968 0.33669484 1.3449
0.4296388 0.33626008 1.3198
0.42553705 0.33884305 1.3072
0.42475581 0.3440035 1.3048
0.41368765 0.34067145 1.2708
0.40183827 0.33638406 1.2344
0.3984527 0.33897445 1.224
0.39962462 0.34541184 1.2276
0.39809462 0.34950903 1.2229
0.38575688 0.34392869 1.1849999
0.38826352 0.35144928 1.1927
0.37159622 0.34142119 1.1415
0.37498176 0.34963676 1.1519001
0.36026764 0.3408218 1.1066999
0.35697979 0.34257129 1.0966001
0.85549176 -0.8329981 2.5922
0.85707581 -0.82303125 2.5969999
0.82298422 -0.7792424 2.4937
0.84549195 -0.78920007 2.5618999
0.86839569 -0.79891759 2.6313
0.86552453 -0.78465343 2.6226001
0.86971581 -0.77677405 2.6352999
0.86776865 -0.76338214 2.6294
0.86948478 -0.75321585 2.6345999
0.84905624 -0.72411746 2.5727
0.89882404 -0.75449204 2.7235
0.89304864 -0.73765171 2.7060001
0.86512852 -0.70297247 2.6214001
0.87631631 -0.70029557 2.6552999
0.90951681 -0.71461385 2.7558999
0.88110173 -0.68045592 2.6698
0.89238858 -0.67718905 2.704
0.89354366 -0.66606659 2.7075
0.87258703 -0.63872755 2.6440001
0.91905463 -0.66039991 2.7848001
0.91575438 -0.64573121 2.7748001
0.90826279 -0.62825197 2.7521
0.89529276 -0.60725802 2.7128
0.89684391 -0.59626681 2.7175
0.91301513 -0.5947578 2.7665
0.90443444 -0.57702291 2.7405
0.91624939 -0.57225686 2.7763
0.91601837 -0.55981177 2.7756
0.91301513 -0.54571593 2.7665
0.89549077 -0.52321631 2.7133999
0.91898859 -0.52460492 2.7846
0.90925288 -0.50683731 2.7551
0.92496204 -0.50317311 2.8027
0.9224869 -0.48943895 2.7952001
0.9039064 -0.46744266 2.7388999
0.91413724 -0.46045786 2.7699001
0.92169482 -0.45188761 2.7927999
0.90337837 -0.43077642 2.7372999
0.92007768 -0.42638415 2.7879
0.88879126 -0.39995018 2.6931
0.91836154 -0.40092435 2.7827001
0.90898889 -0.38462615 2.7543001
0.90542454 -0.37095943 2.7435
0.92050672 -0.36477765 2.7892001
0.91862553 -0.35169637 2.7835
0.92720622 -0.34253046 2.8095
0.94225538 -0.33543682 2.8550999
0.92862535 -0.31811452 2.8138001
0.91819656 -0.30221194 2.7822001
0.90615058 -0.28607887 2.7456999
0.92420298 -0.27936748 2.8004
0.94756883 -0.27370599 2.8712001
0.93370771 -0.25716388 2.8292
0.92096877 -0.24128801 2.7906001
0.92714024 -0.23045473 2.8092999
0.8966459 -0.21083426 2.7169001
0.92496204 -0.20507152 2.8027
0.92242086 -0.19212134 2.7950001
0.94839382 -0.18479542 2.8736999
0.9151603 -0.16603057 2.773
0.93466479 -0.15701792 2.8320999
0.9072727 -0.14023286 2.7491
0.92063868 -0.12993594 2.7895999
0.91849351 -0.11729915 2.7830999
0.91321319 -0.10436168 2.7671001
0.91687644 -0.092467986 2.7781999
0.91341114 -0.079852723 2.7677
0.91723943 -0.067870207 2.7793
0.91390622 -0.055351134 2.7692001
0.87727338 -0.041351944 2.6582
0.93367469 -0.031472627 2.8290999
0.77585655 -0.015734212 2.3508999
1.0629786 -0.0072827283 3.2209001
0.89519382 0.0058879615 2.7125001
0.91773456 0.018360062 2.7808001
0.97730404 0.032675575 2.9612999
0.88235575 0.041349795 2.6736
0.92169482 0.05557036 2.7927999
0.87344509 0.064390413 2.6466
0.90657961 0.079007149 2.747
0.86387438 0.086886019 2.6176
0.8777684 0.1000706 2.6596999
0.80539382 0.10263476 2.4403999
0.83476615 0.1175875 2.5294001
0.8729831 0.13469373 2.6452
0.80704397 0.13535734 2.4454
0.80786908 0.14634423 2.4479001
0.81031126 0.15766793 2.4553001
0.81338054 0.16918765 2.4646001
0.80654901 0.17859745 2.4439001
0.75354689 0.17698 2.2832999
0.74305207 0.18449327 2.2514999
0.76183051 0.19938608 2.3083999
0.75123668 0.20670149 2.2763
0.73196322 0.21122764 2.2179
0.72737586 0.21967143 2.204
0.72813493 0.22967847 2.2063
0.69668353 0.22911309 2.1110001
0.67790508 0.23204084 2.0541
0.68470365 0.24356249 2.0747001
0.6604467 0.24380268 2.0012
0.67150253 0.25690123 2.0346999
0.64592564 0.25578994 1.9572001
0.62935835 0.25768057 1.9069999
0.62576109 0.2646108 1.8961
0.62949038 0.27464092 1.9074
0.62064564 0.27911642 1.8806
0.60454041 0.27999169 1.8318
0.60767567 0.28960398 1.8413
0.59757692 0.29281572 1.8107001
0.58269274 0.29334712 1.7656
0.57764339 0.29856202 1.7503
0.56450838 0.29935354 1.7105
0.55117536 0.29968464 1.6701
0.55038327 0.30664486 1.6677001
0.54196763 0.30923393 1.6422
0.53840333 0.31443021 1.6314
0.53414601 0.31911671 1.6185
0.51246339 0.31304443 1.5528001
0.53787529 0.33579049 1.6298
0.50876707 0.32445049 1.5416
0.50064844 0.32599607 1.517
0.4931899 0.32776228 1.4944
0.46665585 0.3163949 1.414
0.48140797 0.33286151 1.4586999
0.46880102 0.33043995 1.4205
0.48140797 0.34579071 1.4586999
0.45596305 0.33363679 1.3816
0.4464913 0.33270189 1.3529
0.45523697 0.34533188 1.3794
0.43282825 0.3341454 1.3115
0.44319105 0.34809697 1.3429
0.43685454 0.34898636 1.3237
0.41474289 0.33689159 1.2567
0.41239971 0.34052619 1.2496001
0.40414903 0.33914059 1.2246
0.40655822 0.34662175 1.2319
0.39273018 0.3401061 1.1900001
0.39127806 0.34410286 1.1856
0.38497457 0.34372899 1.1665
0.38494155 0.34886873 1.1664
0.38309342 0.35233817 1.1608
0.38197136 0.35643551 1.1574
0.34824276 0.32963815 1.0552
0.87446207 -0.84003562 2.6141
0.88817734 -0.84144413 2.6551001
0.88439727 -0.8261463 2.6438
0.89794517 -0.82690567 2.6842999
0.89814591 -0.81519175 2.6849
0.914671 -0.8180728 2.7342999
0.89436585 -0.78806329 2.6736
0.86947775 -0.75461429 2.5992
0.89065266 -0.76119232 2.6624999
0.89894873 -0.75637305 2.6873
0.91350025 -0.75651437 2.7307999
0.91008812 -0.74163157 2.7205999
0.89406478 -0.71672934 2.6726999
0.90875006 -0.71646255 2.7165999
0.94531292 -0.73276514 2.8259001
0.8952691 -0.68211263 2.6763
0.91875219 -0.68783277 2.7465
0.93427384 -0.68707573 2.7929001
0.8952356 -0.64650625 2.6761999
0.93337059 -0.66168046 2.7902
0.93437415 -0.65001309 2.7932
0.91410238 -0.62380046 2.7326
0.92744964 -0.62062186 2.7725
0.9423691 -0.61812079 2.8171
0.92306739 -0.59323138 2.7593999
0.92912221 -0.58481342 2.7774999
0.9335044 -0.57520443 2.7906001
0.91838419 -0.55372071 2.7454
0.91687888 -0.5406661 2.7409
0.95498043 -0.55048203 2.8548
0.94360685 -0.53142482 2.8208001
0.92417139 -0.50823545 2.7627001
0.94367373 -0.50645852 2.8210001
0.94621605 -0.49528727 2.8285999
0.95140105 -0.48539695 2.8441
0.94190079 -0.46807146 2.8157001
0.93591297 -0.45269665 2.7978001
0.96023238 -0.45173848 2.8705001
0.95063168 -0.43462768 2.8418
0.96086794 -0.4265779 2.8724
0.93367165 -0.4021346 2.7911
0.94444311 -0.39426169 2.8232999
0.92938983 -0.37566489 2.7783
0.96123594 -0.37580261 2.8735001
0.94618261 -0.35738215 2.8285
0.96384513 -0.35128421 2.8813
0.95370924 -0.33495513 2.8510001
0.95176905 -0.32166445 2.8452001
0.96254051 -0.31255287 2.8773999
0.95096618 -0.29619589 2.8427999
0.93862253 -0.27991617 2.8059001
0.95354205 -0.27173272 2.8505001
0.96357757 -0.26182684 2.8805001
0.95785725 -0.24758261 2.8634
0.94166666 -0.23092233 2.8150001
0.94180042 -0.21847795 2.8153999
0.94226879 -0.20610322 2.8168001
0.93694991 -0.19252689 2.8009
0.96371126 -0.18525843 2.8808999
0.96120244 -0.17204191 2.8734
0.96103519 -0.15927997 2.8729
0.959463 -0.14630821 2.8682001
0.95180249 -0.13253038 2.8453
0.93571222 -0.11789342 2.7972
0.94119829 -0.10611543 2.8136001
0.94180042 -0.093706131 2.8153999
0.95952988 -0.082758091 2.8684001
0.93942535 -0.068578385 2.8083
0.96066719 -0.057401914 2.8717999
0.92885458 -0.043195374 2.7767
1.0240917 -0.034056876 3.0613999
0.99676168 -0.019942675 2.9797001
1.0057601 -0.0067981775 3.0065999
0.90864974 0.0058962097 2.7163
1.0067303 0.019870039 3.0095
1.0725633 0.035378955 3.2063
0.87523144 0.040465143 2.6164
0.93230009 0.055454955 2.7869999
0.81250942 0.059093889 2.4289
0.92370307 0.079418436 2.7613001
0.89817935 0.089123227 2.6849999
0.84174627 0.094675206 2.5163
0.89105415 0.11202599 2.6637001
0.83615983 0.11620214 2.4995999
0.81970161 0.12477451 2.4504001
0.84107727 0.13917108 2.5143001
0.81475073 0.14560889 2.4356
0.83020544 0.15936963 2.4818001
0.80160421 0.16449906 2.3963001
0.79708821 0.17413233 2.3828001
0.76955736 0.1783132 2.3004999
0.77383918 0.18955731 2.3132999
0.77711749 0.20065579 2.3231001
0.74379957 0.20190695 2.2235
0.74834895 0.21305619 2.2370999
0.74232769 0.22117645 2.2191
0.72111928 0.22441095 2.1557
0.7189784 0.2332699 2.1493001
0.71252221 0.24061486 2.1300001
0.67345053 0.23634261 2.0132
0.68264973 0.24861489 2.0407
0.66475308 0.25090387 1.9872
0.65230906 0.25484896 1.95
0.66271251 0.26769322 1.9811
0.65294462 0.27239797 1.9519
0.64133686 0.27605197 1.9172
0.62481171 0.27721667 1.8678
0.6164822 0.28168833 1.8429
0.59764886 0.28100061 1.7866
0.59948874 0.28980783 1.7921
0.58373296 0.28992453 1.745
0.57858139 0.29503104 1.7296
0.58941972 0.30836654 1.762
0.56225693 0.30160466 1.6808
0.56198931 0.30890647 1.6799999
0.54924417 0.30917743 1.6418999
0.54178447 0.31215593 1.6196001
0.53777027 0.31696758 1.6076
0.52793545 0.31816503 1.5782
0.52944076 0.3260864 1.5827
0.52157962 0.32815465 1.5592
0.50047153 0.32150477 1.4960999
0.49083748 0.32181853 1.4673001
0.48739192 0.32601652 1.457
0.45959353 0.31351098 1.3739001
0.47789162 0.33232418 1.4286
0.47949731 0.33979329 1.4334
0.45521134 0.32861391 1.3608
0.45427471 0.33395606 1.358
0.43912107 0.32863358 1.3127
0.43373531 0.33034918 1.2966
0.43554175 0.33749515 1.302
0.43035668 0.3391788 1.2865
0.42955387 0.34423688 1.2841001
0.42794818 0.34861967 1.2793
0.41600591 0.34440246 1.2436
0.41958523 0.35292447 1.2543
0.4015213 0.34304985 1.2003
0.40198961 0.34877563 1.2017
0.39733985 0.35000542 1.1878
0.38121611 0.34085292 1.1396
0.38834131 0.35236853 1.1609
0.37271935 0.34313151 1.1142
0.35037357 0.32720149 1.0474
0.91929215 -0.87139916 2.7117
0.9095965 -0.85031778 2.6831
0.9424805 -0.86873794 2.7801001
0.91468167 -0.83115685 2.6981001
0.89057809 -0.79761207 2.6270001
0.91800398 -0.81017423 2.7079
0.93159819 -0.80999321 2.7479999
0.92810643 -0.79482436 2.7377
0.91932613 -0.77528691 2.7118001
0.9452942 -0.78482884 2.7883999
0.94587058 -0.7729423 2.7901001
0.95915967 -0.77126306 2.8292999
0.94790459 -0.74982113 2.7960999
0.90522331 -0.7042253 2.6702001
0.94058198 -0.71943688 2.7744999
0.92732668 -0.6971755 2.7354
0.9373275 -0.69244081 2.7649
0.94207358 -0.68363154 2.7788999
0.94305676 -0.67201674 2.7818
0.94336188 -0.65990192 2.7827001
0.96844858 -0.66479033 2.8566999
0.96851635 -0.65217578 2.8569
0.94787067 -0.62588227 2.796
0.97424567 -0.63056177 2.8738
0.97170311 -0.61621338 2.8663001
0.9351579 -0.58081293 2.7585001
0.9597699 -0.58355236 2.8311
0.95349824 -0.56727427 2.8125999
0.96024454 -0.55873495 2.8325
0.9861449 -0.56091398 2.9089
0.96580434 -0.53671873 2.8489001
0.96448219 -0.52337563 2.845
0.97058433 -0.51399881 2.8629999
0.97983932 -0.50609094 2.8903
0.97590679 -0.49130207 2.8787
0.99851871 -0.48963231 2.9454
0.97512704 -0.46541449 2.8764
0.96410924 -0.44755235 2.8439
0.98014444 -0.44218299 2.8912001
0.99102664 -0.43413702 2.9233
0.97865278 -0.41592282 2.8868001
0.99099267 -0.4082123 2.9231999
0.97600847 -0.38928092 2.8789999
0.97817814 -0.37735888 2.8854001
0.96892315 -0.3611221 2.8580999
0.97390664 -0.35024792 2.8728001
0.98773819 -0.3423098 2.9136
0.99950182 -0.33332041 2.9482999
0.98177159 -0.31457326 2.8959999
0.96695691 -0.29718572 2.8522999
0.97956806 -0.28825605 2.8894999
0.97173697 -0.2732484 2.8664
0.9824158 -0.26340845 2.8979001
0.98455155 -0.25111037 2.9042001
0.97546607 -0.23604116 2.8773999
0.98163605 -0.22470155 2.8956001
0.99363697 -0.21445914 2.931
0.96939778 -0.19655491 2.8594999
0.97658485 -0.18524557 2.8807001
0.99031472 -0.1749039 2.9212
0.9752627 -0.1594962 2.8768001
0.98319542 -0.14794055 2.9001999
0.98733139 -0.13565581 2.9124
0.97546607 -0.1212736 2.8773999
0.98841625 -0.10996237 2.9156001
0.97353375 -0.095579989 2.8717
0.97929686 -0.083343774 2.8887
0.95919365 -0.069093645 2.8294001
0.97068608 -0.057232019 2.8633001
0.94966745 -0.043578058 2.8013
1.0671682 -0.035019156 3.1479001
0.93037778 -0.018367847 2.7444
1.0193338 -0.0067986296 3.0067999
0.93122536 0.0059626326 2.7469001
1.1318851 0.022044221 3.3388
1.057642 0.034424499 3.1198001
0.99431503 0.045361668 2.9330001
0.86183012 0.050583996 2.5422001
0.91874975 0.065935336 2.7100999
1.0022478 0.085029751 2.9563999
0.86925441 0.085110195 2.5641
0.96312612 0.10689197 2.8410001
0.88657779 0.10998625 2.6152
0.86979681 0.11927502 2.5657001
0.86925441 0.13056412 2.5641
0.85274458 0.13923196 2.5153999
0.86688131 0.15287259 2.5571001
0.83535337 0.15823302 2.4640999
0.81426704 0.16488348 2.4019001
0.82982755 0.17888243 2.4477999
0.81087697 0.18539767 2.3919001
0.79599446 0.19240072 2.348
0.7819255 0.19922197 2.3065
0.76436478 0.20474008 2.2546999
0.74443108 0.2091324 2.1959
0.72568381 0.21335238 2.1406
0.72548044 0.22277658 2.1400001
0.71425921 0.22866809 2.1069
0.73073506 0.24349545 2.1554999
0.71659839 0.24815269 2.1138
0.68530786 0.24627581 2.0215001
0.67974806 0.25316393 2.0051
0.66808611 0.25755426 1.9707
0.63106626 0.25153247 1.8615
0.64977962 0.26748562 1.9167
0.64147389 0.27245229 1.8922
0.6383211 0.27945778 1.8829
0.62323517 0.28100049 1.8384
0.61096299 0.28345421 1.8022
0.60204703 0.28718808 1.7759
0.5892325 0.28877813 1.7381001
0.60218263 0.30299702 1.7763
0.58377445 0.30136615 1.722
0.56706131 0.3001512 1.6727
0.57292616 0.31074524 1.6900001
0.56272191 0.31256691 1.6599
0.54292381 0.30866739 1.6015
0.52454948 0.30507833 1.5473
0.53777087 0.31979802 1.5863
0.51071787 0.31038678 1.5065
0.5187524 0.32205123 1.5302
0.50095439 0.31755069 1.4777
0.49010611 0.31708106 1.4457
0.47918999 0.31628299 1.4135
0.48464805 0.32622117 1.4296
0.47457945 0.32564792 1.3999
0.46329045 0.32395807 1.3666
0.46074787 0.32820335 1.3591
0.45569664 0.33056241 1.3442
0.45647636 0.33709538 1.3465
0.47044355 0.3535597 1.3877
0.44786552 0.34244612 1.3211
0.42935559 0.33390591 1.2665
0.42847419 0.33882174 1.2639
0.41789708 0.33592078 1.2327
0.43220326 0.35307068 1.2749
0.41433749 0.34389246 1.2222
0.4193548 0.35353884 1.237
0.39945495 0.34198412 1.1783
0.40372646 0.35091886 1.1909
0.38962367 0.34375414 1.1493
0.38735232 0.34681395 1.1426001
0.37992799 0.34513327 1.1207
0.36528277 0.33660454 1.0775
0.92996198 -0.86998522 2.7072999
0.93958008 -0.86686081 2.7353001
0.9354924 -0.85102004 2.7234001
0.92999637 -0.83402175 2.7074001
0.96252596 -0.85077608 2.8020999
0.95651466 -0.83312201 2.7846
0.96321297 -0.82652915 2.8041
0.95957184 -0.81102455 2.7934999
0.93281305 -0.77637333 2.7156
0.94830501 -0.77703232 2.7607
0.98179644 -0.79180807 2.8582001
0.95881617 -0.76090437 2.7913001
0.94638139 -0.73882633 2.7551
0.97674692 -0.7499305 2.8434999
0.9873268 -0.74531537 2.8743
0.99344116 -0.73711389 2.8921001
0.98152155 -0.71560651 2.8573999
0.98650241 -0.70651037 2.8719001
1.0023378 -0.7049194 2.918
0.97578508 -0.67365623 2.8406999
0.9840979 -0.66669863 2.8649001
0.97815526 -0.65005279 2.8476
0.99488384 -0.64833438 2.8963001
0.96788454 -0.6182524 2.8176999
0.99649829 -0.62367338 2.901
1.0052232 -0.61616486 2.9263999
0.99625784 -0.59781599 2.9003
0.99268538 -0.582865 2.8899
0.98292994 -0.56445551 2.8615
0.97767437 -0.54882377 2.8462
0.99234194 -0.54425454 2.8889
1.0028187 -0.53706253 2.9194
1.0127115 -0.52929491 2.9482
1.0049827 -0.51228946 2.9256999
1.0158031 -0.50469953 2.9572001
1.0003455 -0.48411325 2.9122
1.0408443 -0.49028385 3.0301001
1.018448 -0.46659446 2.9649
1.0026126 -0.44640416 2.9188001
1.0103414 -0.43681017 2.9412999
1.0194098 -0.42757869 2.9677
1.0085208 -0.40999979 2.9360001
1.0100322 -0.39758304 2.9403999
1.0132269 -0.3857682 2.9497001
0.98904431 -0.36380076 2.8793001
1.0016851 -0.35552698 2.9161
1.0174519 -0.34799615 2.9619999
1.0092078 -0.33215597 2.938
1.0143946 -0.32077566 2.9531
1.0063912 -0.30526057 2.9298
0.99258238 -0.28826603 2.8896
1.0110627 -0.28058866 2.9433999
0.99484944 -0.26325393 2.8961999
1.010788 -0.25443062 2.9426
1.0223982 -0.24416241 2.9763999
1.0160779 -0.22954385 2.9579999
1.0012043 -0.21326648 2.9147
1.0173832 -0.20358677 2.9618001
1.0138108 -0.18979199 2.9514
0.99560517 -0.17353877 2.8984001
1.002166 -0.1617527 2.9175
1.0228448 -0.15189385 2.9777
1.0146695 -0.13758883 2.9539001
1.0117841 -0.12414381 2.9454999
1.0039523 -0.11023015 2.9226999
1.0004485 -0.096937947 2.9124999
1.0148757 -0.085242212 2.9545
1.0226043 -0.072698019 2.977
0.96317858 -0.056046721 2.8039999
1.0764655 -0.048750553 3.1338
1.1088576 -0.035911348 3.2281001
1.1215672 -0.021852814 3.2651
0.98306739 -0.0064709987 2.8619001
1.1664972 0.0073714019 3.3959
1.0087956 0.019390041 2.9368
1.2521665 0.040222969 3.6452999
0.81894225 0.036872398 2.3841
0.99478072 0.057623807 2.8959999
0.99708217 0.0706212 2.9026999
0.84370869 0.070643373 2.4561999
0.96245724 0.093003489 2.8018999
0.92267978 0.1010639 2.6861
0.88300532 0.10811052 2.5706
0.87826496 0.11886127 2.5567999
0.89193636 0.13221902 2.5966001
0.90172613 0.14530405 2.6250999
0.86957443 0.15134214 2.5315001
0.83872795 0.15679459 2.4417
0.82464445 0.16480111 2.4007001
0.82296127 0.17508236 2.3958001
0.8187362 0.18474658 2.3835001
0.81667519 0.19481803 2.3775001
0.78854233 0.1982805 2.2955999
0.81227839 0.21472874 2.3647001
0.7636385 0.21172287 2.2230999
0.75254339 0.21835579 2.1908
0.75223422 0.2279712 2.1898999
0.72540677 0.2291999 2.1118
0.71929246 0.23654814 2.0940001
0.71238804 0.24346857 2.0739
0.70476234 0.24995503 2.0517001
0.70672029 0.25976732 2.0574
0.66982824 0.25484896 1.95
0.66577488 0.26189643 1.9382
0.66979384 0.27211887 1.9499
0.66065669 0.2769303 1.9233
0.63874131 0.27598479 1.8595001
0.63248956 0.28144377 1.8413
0.6230433 0.28527871 1.8138
0.60078436 0.28283796 1.749
0.60425371 0.29226717 1.7591
0.59150982 0.29373467 1.722
0.57028145 0.29055059 1.6602
0.59690279 0.31181487 1.7377
0.58058649 0.31078199 1.6902
0.56282741 0.30853719 1.6385
0.55774361 0.31294614 1.6237
0.54771334 0.31438467 1.5944999
0.52487051 0.30804473 1.528
0.52535141 0.3151049 1.5294
0.53009176 0.32478723 1.5432
0.50219941 0.31417686 1.462
0.50934422 0.32521808 1.4828
0.49148214 0.32015404 1.4308
0.49721864 0.33030578 1.4475
0.48134884 0.3259736 1.4013
0.47166213 0.32549894 1.3731
0.48533347 0.34119529 1.4129
0.46802098 0.33506268 1.3625
0.47368875 0.34523171 1.3789999
0.44737655 0.3318269 1.3024
0.44943756 0.33915412 1.3084
0.43538836 0.33416957 1.2675
0.4385829 0.34227994 1.2768
0.43556008 0.34554031 1.268
0.42192307 0.34016529 1.2283
0.42199177 0.3456651 1.2285
0.40746164 0.33902004 1.1862
0.39619479 0.33475724 1.1533999
0.4039923 0.3465578 1.1761
0.39949241 0.34785181 1.163
0.38503101 0.34022731 1.1209
0.38606152 0.34611878 1.1239001
0.37840143 0.34413326 1.1016001
0.96818823 -0.89405423 2.7822001
0.95924473 -0.87357944 2.7565
0.99178213 -0.89058053 2.8499999
0.95117128 -0.84200031 2.7333
0.99940324 -0.87196887 2.8719001
0.97535682 -0.83856726 2.8027999
0.9846831 -0.83404547 2.8296001
1.002918 -0.83671838 2.882
0.99599284 -0.81825674 2.8620999
0.9934873 -0.80354601 2.8548999
0.976888 -0.7776795 2.8072
0.97695762 -0.76529318 2.8074
0.96958017 -0.74716634 2.7862
0.99345255 -0.75291073 2.8548
1.0117222 -0.75387239 2.9073
1.0068154 -0.73739421 2.8931999
0.99404407 -0.71538109 2.8564999
0.98464829 -0.69607955 2.8295
1.0102259 -0.70129579 2.9030001
1.030653 -0.70235074 2.9617
1.0149933 -0.67875308 2.9166999
1.0134622 -0.66482258 2.9123001
1.0051799 -0.64658833 2.8885
1.0099822 -0.63681513 2.9022999
1.0430416 -0.64437646 2.9972999
1.0195868 -0.61690181 2.9298999
1.0225796 -0.60568982 2.9384999
1.0211529 -0.59184021 2.9344001
1.0266511 -0.58195233 2.9502001
1.0241456 -0.56748939 2.9430001
1.0267556 -0.55585968 2.9505
1.0517067 -0.55597395 3.0222001
1.0361513 -0.5345552 2.9775
1.0127662 -0.50959295 2.9103
1.0164897 -0.49852133 2.921
1.024946 -0.48961571 2.9453001
1.0321842 -0.47992834 2.9661
1.024598 -0.46335256 2.9442999
1.0239021 -0.44999826 2.9423001
1.0410929 -0.44429502 2.9916999
1.0235888 -0.42378944 2.9414001
1.045234 -0.41943979 3.0035999
1.054247 -0.40963063 3.0295
1.0495839 -0.3944521 3.0160999
1.0258856 -0.37248102 2.948
1.0213269 -0.35781905 2.9349
1.0288783 -0.34736174 2.9566
1.0468696 -0.34010375 3.0083001
1.0512196 -0.32812947 3.0208001
1.023554 -0.30645877 2.9412999
1.0476351 -0.300327 3.0105
1.0257115 -0.28097951 2.9475
1.0465215 -0.2733525 3.0072999
1.0439116 -0.25937638 2.9998
1.0420325 -0.24563901 2.9944
1.0300963 -0.22970681 2.9600999
1.045234 -0.21977122 3.0035999
1.0185429 -0.20118782 2.9268999
1.0504887 -0.19411975 3.0186999
1.0415105 -0.17919685 2.9928999
1.0442945 -0.16637658 3.0009
1.0471828 -0.15350069 3.0092001
1.0159677 -0.13598652 2.9195001
1.0377868 -0.12569059 2.9821999
1.0321146 -0.11185945 2.9658999
1.0252591 -0.098059602 2.9461999
1.0455124 -0.08668191 3.0044
0.95938396 -0.067323208 2.7569001
1.1097172 -0.063740157 3.1889
1.1699202 -0.052298963 3.3619001
1.0821561 -0.034594193 3.1097
1.0079639 -0.019385831 2.8965001
1.2100438 -0.0078622438 3.4772
1.3227242 0.0082507432 3.8010001
1.1269429 0.021381337 3.2384
1.0078943 0.031958356 2.8963001
1.0359077 0.046039075 2.9768
1.0004123 0.057201974 2.8748
0.96324664 0.06734401 2.7679999
0.89552712 0.074014194 2.5734
0.96662217 0.09220022 2.7776999
0.93025684 0.10057853 2.6731999
0.88884556 0.10742079 2.5541999
0.95005769 0.12691769 2.7300999
0.8968147 0.13122608 2.5771
0.9187035 0.1461288 2.6400001
0.89222115 0.15327913 2.5639
0.86017096 0.15872748 2.4718001
0.89622313 0.17679375 2.5754001
0.85460305 0.17946708 2.4558001
0.8770138 0.19534229 2.5202
0.83772534 0.1972599 2.4073
0.80772829 0.20048304 2.3211
0.81023383 0.2114234 2.3283
0.74940455 0.20509434 2.1535001
0.77042335 0.22065817 2.2139001
0.73586756 0.22013238 2.1145999
0.75855678 0.23658015 2.1798
0.72076458 0.23397252 2.0711999
0.69831908 0.23557952 2.0067
0.72581053 0.25409716 2.0857
0.6855129 0.24871959 1.9699
0.68283331 0.25644338 1.9622
0.67134953 0.26068032 1.9292001
0.65795177 0.26385719 1.8907
0.64323163 0.26614568 1.8484
0.63738531 0.27184388 1.8316
0.64437997 0.2830334 1.8516999
0.62440515 0.28221169 1.7943
0.60436076 0.28084889 1.7367001
0.6041519 0.28844583 1.7361
0.59771407 0.29298413 1.7176
0.58730906 0.29536334 1.6877
0.57885283 0.29848242 1.6634001
0.58532548 0.30927423 1.682
0.56862175 0.30768982 1.6339999
0.57196254 0.31678161 1.6436
0.55449325 0.3141678 1.5934
0.53451836 0.30965754 1.536
0.53403121 0.31617627 1.5346
0.53204763 0.32177761 1.5289
0.51012403 0.31501493 1.4658999
0.50921923 0.32094121 1.4633
0.49947542 0.32116094 1.4353
0.50688767 0.33238232 1.4566
0.50069338 0.33469695 1.4388
0.47351509 0.32255945 1.3607
0.47379348 0.32878295 1.3615
0.46039569 0.32534894 1.323
0.47167072 0.33932349 1.3554
0.44344842 0.32466754 1.2743
0.45851657 0.34153888 1.3176
0.443692 0.33614689 1.275
0.45945612 0.35394123 1.3203
0.43857652 0.34344202 1.2603
0.43784574 0.3484458 1.2582
0.43078145 0.34830999 1.2379
0.4047167 0.33238938 1.163
0.41258138 0.34410286 1.1856
0.40920582 0.34649888 1.1759
0.41066739 0.35296637 1.1801
0.40534312 0.35355231 1.1648
0.39869642 0.35283232 1.1457
0.36598501 0.32854477 1.0517
0.9863258 -0.89919573 2.7981999
1.0243238 -0.92095834 2.9059999
1.0304219 -0.91348565 2.9233
0.99841613 -0.87255913 2.8325
1.026333 -0.88405293 2.9117
1.0233369 -0.86860585 2.9031999
0.99358708 -0.83086205 2.8188
1.0106827 -0.83245057 2.8673
1.0328541 -0.83772612 2.9302001
1.0131148 -0.80897832 2.8742001
1.0243943 -0.80510545 2.9061999
1.0117048 -0.78241235 2.8701999
1.0137492 -0.77124768 2.8759999
1.0126566 -0.75768435 2.8729
1.0428998 -0.76720053 2.9586999
1.043781 -0.75472552 2.9612
1.0554483 -0.7498917 2.9942999
1.0101539 -0.70500964 2.8657999
1.0430409 -0.71484816 2.9591
1.049738 -0.70623994 2.9781001
1.043781 -0.68910885 2.9612
1.046037 -0.67744654 2.9676001
1.0554131 -0.67024916 2.9942
1.0408202 -0.64789575 2.9528
1.0439221 -0.63670152 2.9616001
1.0483282 -0.62620836 2.9741001
1.0726497 -0.62725025 3.0431001
1.0619693 -0.60765272 3.0128
1.064895 -0.59593797 3.0211
1.063203 -0.58162361 3.0163
1.0640137 -0.56868941 3.0186
1.0652122 -0.55593717 3.0220001
1.0832946 -0.5517543 3.0732999
1.0460722 -0.51964366 2.9677
1.0633793 -0.5148713 3.0167999
1.077091 -0.50796819 3.0557001
1.0540737 -0.48386022 2.9904001
1.0634497 -0.47479355 3.017
1.0682788 -0.46351823 3.0307
1.0554131 -0.4446663 2.9942
1.0671861 -0.43620893 3.0276
1.0752228 -0.42597523 3.0504
1.0690895 -0.41010386 3.033
1.0638022 -0.39470059 3.0179999
1.0985926 -0.39379632 3.1166999
1.0786419 -0.37308326 3.0601001
1.0738481 -0.35792381 3.0465
1.0921068 -0.35027871 3.0983
1.0737071 -0.33087763 3.0460999
1.0767385 -0.31827408 3.0546999
1.0645072 -0.30127472 3.02
1.0710282 -0.28965437 3.0385001
1.06419 -0.27442506 3.0191
1.0744826 -0.26356992 3.0483
1.0717331 -0.2494207 3.0404999
1.0773377 -0.2371798 3.0564001
1.0756105 -0.22327603 3.0515001
1.0585855 -0.20643249 3.0032001
1.0793822 -0.19691707 3.0622001
1.0753639 -0.18266356 3.0508001
1.057246 -0.16629341 2.9993999
1.0820258 -0.15658683 3.0697
1.0497733 -0.13872069 2.9782
1.0767032 -0.12874204 3.0546
1.0871016 -0.11631738 3.0841
1.082343 -0.10220006 3.0706
1.0417014 -0.085265301 2.9553001
1.1004961 -0.076241352 3.1221001
0.83221906 -0.047191981 2.3610001
1.1008133 -0.048582543 3.1229999
1.0215392 -0.032240227 2.8980999
1.1677504 -0.022172732 3.3129001
1.2237604 -0.0078500342 3.4718001
1.4992985 0.0092329737 4.2535
1.2041268 0.022554591 3.4161
1.0639786 0.033306736 3.0185001
1.0674329 0.046835575 3.0283
0.98452824 0.055576336 2.7931001
1.0265093 0.070852324 2.9122
1.0135731 0.082702965 2.8755
0.95379138 0.089816965 2.7059
0.94416857 0.10078172 2.6786001
0.9620043 0.11478069 2.7291999
0.96270931 0.12696883 2.7312
0.94371033 0.13632827 2.6773
0.91219807 0.14324497 2.5878999
0.92527533 0.15693189 2.625
0.86887753 0.1582908 2.4649999
0.90874374 0.17697909 2.5781
0.90511316 0.18765192 2.5678
0.84801048 0.18647507 2.4058001
0.83102059 0.19318737 2.3576
0.80010766 0.19606069 2.2699001
0.79520804 0.20485814 2.256
0.81117564 0.21917047 2.3013
0.77582133 0.21937242 2.201
0.76591647 0.22620149 2.1729
0.7350387 0.22632377 2.0853
0.74483782 0.23870575 2.1131001
0.72506332 0.24148455 2.0569999
0.72605032 0.25094181 2.0597999
0.696935 0.24964128 1.9772
0.69781619 0.2587305 1.9797
0.66482353 0.2548565 1.8861001
0.67800647 0.26843458 1.9234999
0.65312099 0.26679361 1.8529
0.64547205 0.27178454 1.8312
0.65255702 0.28297228 1.8513
0.66404808 0.2963042 1.8839
0.62301874 0.28582966 1.7675
0.62608534 0.29510829 1.7762001
0.62330073 0.30163243 1.7683001
0.61329013 0.30449882 1.7399
0.60965949 0.31036139 1.7296
0.58967352 0.30760098 1.6729
0.55869007 0.2984629 1.585
0.56707925 0.31007439 1.6088001
0.56905317 0.31830832 1.6144
0.56013525 0.32036248 1.5891
0.54314542 0.31747428 1.5409
0.55266255 0.32998568 1.5678999
0.5387041 0.32842439 1.5283
0.53010345 0.32984588 1.5039001
0.50324404 0.31946039 1.4277
0.49397364 0.31978619 1.4014
0.5033145 0.33216137 1.4279
0.48547876 0.32649454 1.3773
0.48745266 0.33395073 1.3829
0.48128414 0.33577585 1.3654
0.4686299 0.33283943 1.3295
0.44427317 0.3211261 1.2604001
0.45738563 0.33635461 1.2976
0.46309587 0.3463763 1.3138
0.44508386 0.33850002 1.2627
0.43623647 0.33725607 1.2376
0.44029003 0.34592563 1.2491
0.43609548 0.34811303 1.2372
0.42495692 0.34456462 1.2056
0.41899991 0.34500256 1.1887
0.42957452 0.35911062 1.2187001
0.40972954 0.34767234 1.1624
0.4057112 0.3493636 1.151
0.40394878 0.35292473 1.146
0.36965188 0.32760757 1.0487
1.0047858 -0.90449798 2.8146999
1.0271683 -0.91189456 2.8773999
1.0243481 -0.89667398 2.8694999
1.021421 -0.88143104 2.8613
1.036307 -0.88141143 2.9030001
1.024598 -0.85873258 2.8701999
1.0499078 -0.86691082 2.9410999
1.0458382 -0.85056686 2.9296999
1.017387 -0.8147974 2.8499999
1.0572258 -0.83357811 2.9616001
1.0611169 -0.82347262 2.9725001
1.0377349 -0.79244399 2.9070001
1.0713621 -0.80482215 3.0012
1.0596176 -0.78284472 2.9683001
1.0888184 -0.79090089 3.0501001
1.072683 -0.76586336 3.0049
1.0439819 -0.73241103 2.9245
1.0602602 -0.73066831 2.9700999
1.0907103 -0.73811197 3.0553999
1.0741823 -0.7135914 3.0091
1.0740752 -0.70018595 3.0088
1.0660433 -0.68171537 2.9863
1.0938874 -0.68594104 3.0643001
1.054013 -0.64785182 2.9526
1.0795013 -0.65011656 3.0239999
1.0913887 -0.64372641 3.0573001
1.1110224 -0.64151388 3.1122999
1.0961721 -0.61933059 3.0706999
1.1216604 -0.61980629 3.1421001
1.0728258 -0.57950252 3.0053
1.110594 -0.5861159 3.1111
1.1049181 -0.56940329 3.0952001
1.1035259 -0.55498588 3.0913
1.086141 -0.53275859 3.0425999
1.1112723 -0.53128958 3.1129999
1.0883187 -0.50680453 3.0487001
1.0781804 -0.48869812 3.0202999
1.0671855 -0.47046584 2.9895
1.0890325 -0.46657705 3.0506999
1.0936018 -0.45495799 3.0634999
1.1019908 -0.44476712 3.0869999
1.0762528 -0.42101783 3.0149
1.1132357 -0.42166466 3.1185
1.1057035 -0.4050847 3.0974
1.1060961 -0.39149675 3.0985
1.0963149 -0.37442437 3.0711
1.1159844 -0.36728752 3.1262
1.1297281 -0.35778555 3.1647
1.1235167 -0.34187031 3.1473
1.1153061 -0.32552582 3.1243
1.0929236 -0.30542472 3.0616
1.1077383 -0.29581258 3.1031001
1.1328695 -0.28845948 3.1735001
1.086498 -0.26316354 3.0436001
1.0847489 -0.24927306 3.0387001
1.1016697 -0.23948456 3.0861001
1.0865694 -0.22271264 3.0438001
1.100206 -0.211849 3.082
1.1079524 -0.19958575 3.1036999
1.0980998 -0.18417838 3.0761001
1.1026335 -0.17124994 3.0888
1.0866766 -0.15528096 3.0441
1.1024193 -0.14384435 3.0882001
1.1153061 -0.13167968 3.1243
1.0950655 -0.11569508 3.0676
1.140009 -0.10629059 3.1935
1.2483518 -0.10089424 3.497
1.1170553 -0.076414727 3.1292
1.0499792 -0.05879109 2.9412999
1.0876046 -0.047395591 3.0467
1.1113794 -0.034634244 3.1133001
1.402959 -0.026303556 3.9301
1.2146888 -0.0076937932 3.4026999
0.99832451 0.0060705151 2.7966001
1.1236595 0.020782497 3.1477001
1.0675068 0.032996673 2.9904001
1.0647938 0.046131872 2.9828
1.0241697 0.057086568 2.869
1.0108901 0.068896234 2.8318
0.99935973 0.080517113 2.7995
1.0313807 0.095901243 2.8892
0.9595924 0.10113915 2.6881001
0.99450487 0.1171653 2.7859001
0.98418814 0.12816823 2.757
0.91229278 0.13013129 2.5555999
0.95612973 0.14825431 2.6784
0.9312126 0.15595144 2.6085999
0.91222137 0.16409588 2.5553999
0.91254264 0.17548259 2.5562999
0.90815181 0.18591262 2.5439999
0.8471086 0.18393271 2.3729999
0.82897419 0.19028662 2.3222001
0.81647992 0.19755495 2.2872
0.81726533 0.20789106 2.2894001
0.81701541 0.21797048 2.2887001
0.83282948 0.23252879 2.3329999
0.75515115 0.22021568 2.1154001
0.77596295 0.2359181 2.1737001
0.781389 0.24726847 2.1889
0.74369216 0.2445721 2.0833001
0.71010053 0.24234074 1.9892
0.71299201 0.25217912 1.9973
0.70471013 0.25799862 1.9741
0.67907912 0.25704548 1.9023
0.65019965 0.254186 1.8214
0.66744161 0.26921257 1.8697
0.65530443 0.27245241 1.8357
0.65783894 0.28167304 1.8428
0.6387406 0.28142527 1.7893
0.62910223 0.28498876 1.7623
0.62156999 0.28929317 1.7412
0.62146288 0.2969586 1.7409
0.60000849 0.29415578 1.6808
0.59740257 0.30029476 1.6734999
0.59533215 0.30664486 1.6677001
0.57958937 0.30573148 1.6236
0.57676923 0.31140426 1.6157
0.56948686 0.31454241 1.5953
0.54535514 0.30798423 1.5276999
0.54407007 0.31401291 1.5240999
0.54571217 0.32173553 1.5287
0.5322898 0.32043028 1.4911
0.52000976 0.31949362 1.4567
0.52279419 0.32769468 1.4645
0.50458831 0.32254729 1.4135
0.51597589 0.33623224 1.4454
0.51279879 0.34052813 1.4365
0.48870277 0.33059406 1.369
0.50198239 0.34580931 1.4062001
0.48231289 0.33824697 1.3511
0.47231749 0.33710086 1.3231
0.46585619 0.33827275 1.3049999
0.45000637 0.3323504 1.2606
0.45004207 0.33796388 1.2607
0.44268835 0.33793736 1.2401
0.44108194 0.34218696 1.2356
0.43844029 0.34558067 1.2282
0.43219319 0.34602222 1.2107
0.42526782 0.34575719 1.1913
0.41020334 0.33860177 1.1490999
0.41405869 0.34692457 1.1599
0.40991777 0.34854406 1.1483001
0.40467018 0.34910598 1.1336
0.37982452 0.33238721 1.064
1.0422266 -0.92654252 2.8833001
1.0574806 -0.92713821 2.9254999
1.074072 -0.92851615 2.9714
1.0696621 -0.91158938 2.9591999
1.0874465 -0.91341305 3.0084
1.0753733 -0.8900876 2.9749999
1.0539744 -0.85945356 2.9158001
1.0679994 -0.85779601 2.9546001
1.0804701 -0.85456526 2.9891
1.0604807 -0.82575345 2.9338
1.0840125 -0.83078617 2.9988999
1.0937722 -0.82485592 3.0258999
1.0853138 -0.80517077 3.0025001
1.0793856 -0.78753912 2.9861
1.0925792 -0.78377002 3.0225999
1.0819882 -0.76290685 2.9933
1.1209186 -0.77661365 3.1010001
1.1136892 -0.7579506 3.0810001
1.1100383 -0.7418564 3.0709
1.1257622 -0.7385627 3.1143999
1.115388 -0.71808159 3.0857
1.1032065 -0.69671339 3.052
1.1145928 -0.69023889 3.0834999
1.1175569 -0.6783728 3.0917001
1.1176292 -0.66471416 3.0919001
1.1171954 -0.65075886 3.0906999
1.1209909 -0.63922596 3.1012001
1.1224729 -0.6263091 3.1052999
1.1179184 -0.61006171 3.0927
1.1246778 -0.5999614 3.1113999
1.1301723 -0.58903605 3.1266
1.1214608 -0.57074618 3.1025
1.1367509 -0.56459081 3.1447999
1.1369317 -0.55074137 3.1452999
1.1413777 -0.53890139 3.1575999
1.1151351 -0.5128389 3.085
1.1359557 -0.50848687 3.1426001
1.1540654 -0.50244397 3.1926999
1.1391004 -0.48196292 3.1513
1.1336062 -0.46573979 3.1361001
1.1348351 -0.45233119 3.1394999
1.1401488 -0.44047049 3.1542001
1.1373293 -0.42543712 3.1464
1.1686687 -0.42283183 3.2330999
1.1542461 -0.40346214 3.1932001
1.1305698 -0.38132498 3.1277001
1.1398234 -0.37047142 3.1533
1.1452454 -0.35819256 3.1682999
1.1553304 -0.34718201 3.1961999
1.127678 -0.32504654 3.1197
1.15768 -0.31950083 3.2026999
1.1486434 -0.30292404 3.1777
1.1283648 -0.28374195 3.1215999
1.1194004 -0.26776344 3.0968001
1.1318711 -0.25686929 3.1313
1.1456431 -0.24594872 3.1694
1.1439443 -0.2315588 3.1647
1.1349797 -0.21582891 3.1399
1.1294131 -0.20092331 3.1245
1.1248947 -0.18632784 3.112
1.149294 -0.17627856 3.1795001
1.1460046 -0.16172357 3.1703999
1.1230874 -0.14472003 3.1070001
1.1383775 -0.13273336 3.1493001
1.1265936 -0.11754689 3.1166999
1.1643672 -0.10721254 3.2212
0.45483771 -0.036304038 1.2582999
1.1996467 -0.081044741 3.3188
1.3657061 -0.075519159 3.7781999
1.5226563 -0.065529652 4.2124
1.0805423 -0.033254791 2.9893
1.3174498 -0.024393419 3.6447001
1.2795678 -0.0080040144 3.5399001
1.1657047 0.0070002158 3.2249
1.0957602 0.020014632 3.0314
1.0241169 0.031262096 2.8332
1.1048694 0.04727326 3.0566001
0.9642936 0.053081159 2.6677001
1.0784819 0.07258945 2.9835999
1.0609145 0.084414259 2.9349999
1.0520223 0.096604928 2.9103999
1.049456 0.109236 2.9033
1.0277315 0.11957514 2.8432
0.96975183 0.1247188 2.6828001
0.97398096 0.1372041 2.6945
0.93891841 0.14377636 2.5975001
0.90978396 0.15046929 2.5169001
0.91545898 0.16263177 2.5325999
0.93017077 0.17664959 2.5732999
0.90700066 0.18336949 2.5092001
0.86073244 0.18456832 2.3812001
0.87157655 0.19757949 2.4112
0.86376882 0.20639966 2.3896
0.83557409 0.20990694 2.3116
0.84233361 0.22193235 2.3303001
0.79675227 0.21969137 2.2042
0.79252309 0.22824189 2.1925001
0.76320779 0.22915648 2.1113999
0.75062871 0.23458254 2.0766001
0.72933805 0.23687087 2.0177
0.73877251 0.24899258 2.0438001
0.70902348 0.24765901 1.9615
0.70414358 0.25458756 1.948
0.70519185 0.26361248 1.9509
0.68762445 0.26547602 1.9023
0.66214079 0.26375547 1.8318
0.66756284 0.27409986 1.8468
0.66485184 0.28113806 1.8393
0.65256184 0.28394181 1.8053
0.65993583 0.29524145 1.8257
0.62002951 0.28498998 1.7153
0.61280012 0.28918025 1.6953
0.59610021 0.28860795 1.6490999
0.60806489 0.30185589 1.6822
0.57733995 0.2936818 1.5972
0.5856899 0.30511007 1.6203001
0.58471394 0.31177044 1.6176
0.58015943 0.31645495 1.605
0.56841159 0.31701592 1.5725
0.55406123 0.31580541 1.5328
0.54047 0.31468499 1.4952
0.55004895 0.3270061 1.5217
0.53663838 0.32561284 1.4845999
0.53219235 0.32944003 1.4723001
0.50721478 0.32019696 1.4032
0.51270908 0.32995147 1.4184
0.50790155 0.33308464 1.4051
0.49911782 0.33344361 1.3808
0.49123776 0.33420196 1.359
0.47800797 0.33106196 1.3224
0.47547767 0.33513907 1.3154
0.47840559 0.34306821 1.3235
0.46264547 0.33743873 1.2799
0.45324728 0.33614099 1.2539001
0.44601786 0.33624777 1.2339
0.44182482 0.33850366 1.2223001
0.44995788 0.35025144 1.2448
0.44392133 0.35099518 1.2280999
0.42884806 0.34433505 1.1864001
0.40969011 0.33397552 1.1334
0.41500375 0.34339523 1.1481
0.41587129 0.34921184 1.1505001
0.40126789 0.34186888 1.1101
0.3808448 0.32913831 1.0536
1.0908965 -0.95790607 2.9809
1.0649863 -0.92225772 2.9101
1.0962396 -0.93604708 2.9955001
1.1123419 -0.93632603 3.0395
1.0982157 -0.91113591 3.0009
1.0994234 -0.89882398 3.0042
1.1280782 -0.90858954 3.0825
1.1271268 -0.8941738 3.0799
1.1181606 -0.87352002 3.0553999
1.1197343 -0.86118948 3.0597
1.0827721 -0.81964958 2.9586999
1.1109513 -0.82752746 3.0357001
1.118673 -0.81973219 3.0567999
1.1264315 -0.81177646 3.0780001
1.1267608 -0.79836887 3.0789001
1.1210884 -0.78077334 3.0634
1.1379958 -0.77876747 3.1096001
1.1445466 -0.76938999 3.1275001
1.1302373 -0.74608397 3.0883999
1.1266876 -0.73009664 3.0787001
1.136166 -0.72247982 3.1046
1.128554 -0.70397276 3.0838001
1.1580871 -0.70837069 3.1645
1.165077 -0.69853723 3.1835999
1.1473278 -0.67400146 3.1350999
1.1550131 -0.66452914 3.1561
1.1430827 -0.64382249 3.1235001
1.168151 -0.64379561 3.1919999
1.1548667 -0.62248898 3.1557
1.1575748 -0.60993057 3.1631
1.1596242 -0.59696746 3.1687
1.1714448 -0.58886659 3.201
1.174409 -0.57613468 3.2091
1.175324 -0.56235051 3.2116001
1.1458274 -0.5343616 3.131
1.1557449 -0.52499074 3.1580999
1.159551 -0.51267755 3.1684999
1.1489015 -0.49405599 3.1394
1.1743726 -0.49078763 3.2090001
1.1738602 -0.47635821 3.2076001
1.1802645 -0.46466422 3.2251
1.1900722 -0.45411384 3.2519
1.1767147 -0.43476689 3.2154
1.1751044 -0.41994154 3.211
1.1549033 -0.39873666 3.1558001
1.1767513 -0.39202943 3.2155001
1.1757265 -0.37745011 3.2126999
1.1651869 -0.35995623 3.1839001
1.1703469 -0.34737751 3.198
1.1665409 -0.33212113 3.1875999
1.1661383 -0.31788474 3.1865001
1.1669068 -0.30396312 3.1886001
1.1600268 -0.28812316 3.1698
1.1793861 -0.27864933 3.2227001
1.1610148 -0.26024905 3.1724999
1.1568428 -0.24530463 3.1610999
1.1682975 -0.23358558 3.1924
1.1666507 -0.21912831 3.1879001
1.1627349 -0.20431224 3.1772001
1.1704566 -0.19149497 3.1982999
1.1615272 -0.17596808 3.1738999
1.1721035 -0.16337632 3.2028
1.1616004 -0.14784546 3.1740999
1.1784346 -0.13571736 3.2200999
1.2415997 -0.12795629 3.3927
1.2957621 -0.11784659 3.5407
1.2821848 -0.10108466 3.5035999
1.4359988 -0.095821217 3.9238999
1.5882024 -0.086744495 4.3397999
1.2990558 -0.055220447 3.5497
1.3082414 -0.039768249 3.5748
1.5559611 -0.028455975 4.2516999
1.1458274 -0.0070794569 3.131
1.1279684 0.0066904603 3.0822001
1.1415091 0.020594327 3.1192
1.0749406 0.032410756 2.9373
1.1108414 0.046945378 3.0353999
1.1157819 0.060666166 3.0488999
1.0847483 0.072115026 2.9640999
1.0976303 0.086263612 2.9993
1.0621319 0.096336067 2.9022999
1.0316838 0.10606799 2.8190999
1.0317936 0.11857419 2.8194001
0.99647826 0.12658297 2.7228999
1.0251331 0.14263725 2.8011999
1.0384542 0.15706632 2.8376
0.96976304 0.1584205 2.6499
0.92840934 0.1629079 2.5369
0.90762264 0.17025167 2.4800999
0.90535372 0.18078981 2.4739001
0.85858375 0.18184769 2.3461001
0.86923325 0.19462956 2.3752
0.81152099 0.19153467 2.2175
0.81935257 0.20330535 2.2388999
0.81737643 0.21271335 2.2335
0.8090325 0.22033922 2.2107
0.79735833 0.2268157 2.1788001
0.78747725 0.23354121 2.1517999
0.77975553 0.24069394 2.1307001
0.73836523 0.23685914 2.0176001
0.73953629 0.24619053 2.0208001
0.70096385 0.24183841 1.9154
0.72760588 0.25984135 1.9881999
0.71567553 0.26424757 1.9556
0.69082671 0.26343852 1.8877
0.68822837 0.27078205 1.8806
0.69649911 0.2824707 1.9032
0.67772526 0.28306398 1.8519
0.67644441 0.29072067 1.8484
0.64767975 0.2862016 1.7697999
0.63589579 0.28869504 1.7376
0.65174192 0.30378169 1.7809
0.62026924 0.29662341 1.6949
0.60017788 0.29428348 1.64
0.59673786 0.29982316 1.6306
0.59077269 0.30398023 1.6143
0.59168756 0.31161624 1.6168
0.58147722 0.31328052 1.5889
0.56398422 0.31068569 1.5411
0.55834842 0.31434259 1.5257
0.54993129 0.31626347 1.5027
0.55366409 0.325115 1.5129
0.53112084 0.31830928 1.4513
0.53503662 0.32713532 1.462
0.52178878 0.32535404 1.4258
0.49745232 0.31620347 1.3593
0.49441481 0.32026002 1.351
0.49712294 0.32803431 1.3584
0.49335352 0.33152145 1.3480999
0.48017892 0.32848337 1.3121001
0.47794655 0.33274412 1.306
0.47454309 0.33612132 1.2967
0.48050827 0.34616539 1.313
0.45478112 0.33313853 1.2427
0.46641874 0.34731162 1.2745
0.45792839 0.34653491 1.2513
0.4550373 0.34985751 1.2434
0.43571451 0.34027758 1.1906
0.44083798 0.3496173 1.2046
0.42715099 0.34393525 1.1672
0.42546758 0.34773219 1.1626
0.42550418 0.3529149 1.1627001
0.41379339 0.3482129 1.1307
0.3875539 0.33082524 1.059
1.1451482 -0.99335074 3.0912001
1.1163268 -0.95499521 3.0134001
1.1331824 -0.95585859 3.0589001
1.1570398 -0.96214086 3.1233001
1.145889 -0.93916011 3.0932
1.1688201 -0.94397163 3.1551001
1.148334 -0.9136889 3.0998001
1.1480006 -0.89969003 3.0989001
1.1471114 -0.88527024 3.0964999
1.1555579 -0.87796462 3.1192999
1.1620778 -0.86901635 3.1368999
1.1611516 -0.85443288 3.1343999
1.1470003 -0.83029801 3.0962
1.147482 -0.81691927 3.0975001
1.1457778 -0.80199909 3.0929
1.1607442 -0.79858887 3.1333001
1.174377 -0.79391903 3.1701
1.1654861 -0.77396572 3.1461
1.1894544 -0.77565289 3.2107999
1.1595588 -0.74228585 3.1301
1.1813414 -0.7420975 3.1889
1.1765627 -0.72502029 3.1760001
1.1786371 -0.71219856 3.1816001
1.1805265 -0.6992175 3.1867001
1.1911215 -0.69124335 3.2153001
1.1870464 -0.67467779 3.2042999
1.1831197 -0.65829223 3.1937001
1.2054951 -0.65632063 3.2541001
1.2180164 -0.64856654 3.2879
1.1782297 -0.61328578 3.1805
1.1813785 -0.60079187 3.1889999
1.2187203 -0.6052025 3.2897999
1.2123485 -0.58753496 3.2725999
1.2100517 -0.57194597 3.2664001
1.1987528 -0.55226469 3.2358999
1.1979748 -0.53757483 3.2337999
1.1878985 -0.51884234 3.2066
1.1840458 -0.50299478 3.1961999
1.2195354 -0.50348175 3.2920001
1.2002347 -0.48115504 3.2399001
1.2152009 -0.47261727 3.2802999
1.2233139 -0.46113804 3.3022001
1.2051988 -0.43989149 3.2533
1.2208689 -0.43100572 3.2955999
1.2231288 -0.41717118 3.3017001
1.2151639 -0.39991757 3.2802
1.2021239 -0.38124496 3.2449999
1.2019387 -0.36680734 3.2444999
1.2069398 -0.35389492 3.2579999
1.2142007 -0.3414984 3.2776
1.2177571 -0.32793054 3.2872
1.205458 -0.31019756 3.2539999
1.2162753 -0.2984308 3.2832
1.1919736 -0.27820837 3.2176001
1.2104962 -0.26805037 3.2676001
1.1996049 -0.25128767 3.2381999
1.194048 -0.2358392 3.2232001
1.2042356 -0.22344503 3.2507
1.1983824 -0.20802267 3.2349
1.2100517 -0.19557239 3.2664001
1.2069029 -0.18062523 3.2579
1.2051617 -0.16594724 3.2532001
1.2221285 -0.15366314 3.299
1.2246106 -0.13932514 3.3057001
1.3613452 -0.13859573 3.6747999
1.406096 -0.12633054 3.7955999
1.2950339 -0.10085962 3.4958
1.5508324 -0.10222899 4.1862998
1.2624339 -0.068115555 3.4078
1.4800758 -0.062152367 3.9953001
1.5533144 -0.046645481 4.1929998
1.2808084 -0.023139847 3.4574001
1.1826011 -0.0072180615 3.1923001
1.1466299 0.0067186793 3.0952001
1.2512833 0.022301057 3.3777001
1.1171048 0.033273634 3.0155001
1.1164379 0.046609771 3.0137
1.1202536 0.060170714 3.0239999
1.0898023 0.071572483 2.9418001
1.1211427 0.08704304 3.0264001
1.0722426 0.096073844 2.8943999
1.1056577 0.11229489 2.9846001
1.0786146 0.1224518 2.9116001
1.0196012 0.12794973 2.7523
1.0397168 0.14291224 2.8066001
0.98396349 0.14701997 2.6561
1.0425322 0.16824295 2.8141999
0.95051146 0.16476372 2.5658
0.91609621 0.16975741 2.4728999
0.91665196 0.18082635 2.4744
0.88760829 0.18571545 2.3959999
0.90835375 0.20092273 2.4519999
0.88016218 0.20521635 2.3759
0.81937069 0.20084453 2.2118001
0.84896988 0.21825616 2.2916999
0.79847705 0.21482751 2.1554
0.78784496 0.22139201 2.1266999
0.77480501 0.22699669 2.0915
0.78843772 0.24042282 2.1283
0.76747006 0.2432103 2.0717001
0.75331867 0.24773772 2.0335
0.7375744 0.25138369 1.9910001
0.72538638 0.25590754 1.9581
0.72005188 0.26263958 1.9437
0.71208709 0.26825318 1.9222
0.69274938 0.26925579 1.87
0.68589598 0.27479744 1.8515
0.68363619 0.28207046 1.8454
0.67330056 0.28586066 1.8175
0.65429622 0.28561944 1.7661999
0.66663235 0.29897946 1.7995
0.63781101 0.2936835 1.7217
0.63555127 0.30024609 1.7156
0.61821401 0.29945138 1.6688
0.60217333 0.29888541 1.6255
0.58765155 0.29870769 1.5863
0.58998537 0.30695203 1.5926
0.61061972 0.32499233 1.6483001
0.58431745 0.3179836 1.5773
0.57224065 0.31825718 1.5447
0.56149745 0.3189995 1.5157
0.56409061 0.32722098 1.5227
0.55490339 0.32852992 1.4979
0.52263683 0.31567886 1.4108
0.5290457 0.32587889 1.4281
0.52341473 0.32867202 1.4129
0.51711708 0.33090374 1.3959
0.5176357 0.33742812 1.3973
0.50837433 0.33747268 1.3723
0.48451707 0.32743189 1.3079
0.48366505 0.3326422 1.3056
0.47792298 0.33441049 1.2901
0.464068 0.33026761 1.2527
0.47599661 0.34445134 1.2849
0.45602912 0.3354575 1.2309999
0.45543644 0.34046993 1.2294
0.45606619 0.34639665 1.2311
0.44402644 0.34256402 1.1986001
0.43713596 0.3424775 1.1799999
0.42828214 0.34066448 1.1561
0.4305419 0.34761253 1.1622
0.43139395 0.35346124 1.1645
0.41590893 0.3457492 1.1227
0.39138487 0.33004424 1.0565
1.1395743 -0.97667277 3.0393
1.1667955 -0.98621148 3.1119001
1.1807435 -0.98404467 3.1491001
1.1946914 -0.98154813 3.1863
1.1826931 -0.95771134 3.1543
1.1768814 -0.93909478 3.1387999
1.1896671 -0.93523562 3.1729
1.2155385 -0.94120651 3.2419
1.2033153 -0.91751909 3.2093
1.1646208 -0.8742494 3.1061001
1.2113765 -0.89502949 3.2307999
1.2253621 -0.89087933 3.2681
1.1991907 -0.85767782 3.1982999
1.1985159 -0.84302902 3.1965001
1.191017 -0.82367682 3.1765001
1.1731696 -0.79746747 3.1289001
1.2071397 -0.80629075 3.2195001
1.1786063 -0.77330148 3.1434
1.2314737 -0.79343295 3.2844
1.2106267 -0.76569206 3.2288001
1.2040651 -0.74731028 3.2112999
1.2309488 -0.74944627 3.283
1.240135 -0.74038112 3.3074999
1.2171133 -0.71225083 3.2460999
1.2222126 -0.70078874 3.2597001
1.2438469 -0.69849145 3.3174
1.2237873 -0.67276204 3.2639
1.2340609 -0.66382349 3.2913001
1.215201 -0.63931513 3.2409999
1.2371354 -0.63623214 3.2995
1.2100642 -0.60800743 3.2272999
1.214676 -0.59596753 3.2395999
1.2497711 -0.5984146 3.3332
1.2066147 -0.56348866 3.2181001
1.2424597 -0.56554264 3.3137
1.260832 -0.5590027 3.3627
1.2330484 -0.53211027 3.2886
1.2365354 -0.51899958 3.2979
1.2584324 -0.51331586 3.3563001
1.2608694 -0.49940678 3.3627999
1.2412972 -0.47698283 3.3106
1.2268244 -0.45692074 3.2720001
1.2283992 -0.44298792 3.2762001
1.2462466 -0.43469381 3.3238001
1.2159134 -0.40974173 3.2428999
1.214676 -0.39496765 3.2395999
1.2544204 -0.39306411 3.3455999
1.2343608 -0.37218878 3.2921
1.2438469 -0.36034715 3.3174
1.237098 -0.34376979 3.2994001
1.253858 -0.3336069 3.3441
1.2424972 -0.31589821 3.3138001
1.2588823 -0.30518439 3.3575001
1.2528832 -0.28892133 3.3415
1.257045 -0.27502316 3.3526001
1.23991 -0.25661886 3.3069
1.2241998 -0.23889768 3.2650001
1.2166634 -0.22304635 3.2449
1.2423471 -0.21307068 3.3134
1.2403973 -0.19807512 3.3081999
1.2231499 -0.18086363 3.2622001
1.2445593 -0.16931903 3.3192999
1.2171508 -0.15120378 3.2462001
1.2794669 -0.14382222 3.4124
1.4548666 -0.14634243 3.8801999
1.4216465 -0.1261974 3.7916
1.4998977 -0.11541528 4.0002999
1.313512 -0.085547775 3.5032001
1.3325592 -0.071037821 3.5539999
1.560564 -0.064747162 4.1620998
1.3762779 -0.040833987 3.6705999
1.2482713 -0.022281826 3.3292
