# .PCD v0.7 - Point Cloud Data file format
VERSION 0.7
FIELDS x y z
SIZE 4 4 4
TYPE F F F
COUNT 1 1 1
WIDTH 1506
HEIGHT 1
VIEWPOINT 0 0 0 1 0 0 0
POINTS 1506
DATA ascii
-0.42005172 0.33795354 1.1469001
-0.4276697 0.34925759 1.1677001
-0.41547358 0.34432498 1.1344
-0.39855283 0.33512449 1.0882
-0.40294784 0.34369591 1.1002001
-0.78533947 -0.69761425 2.1709001
-0.77871925 -0.68219376 2.1526
-0.82672447 -0.71412063 2.2853
-0.79460043 -0.67663765 2.1965001
-0.78892082 -0.66213644 2.1808
-0.78602678 -0.65007812 2.1728001
-0.78070885 -0.63611585 2.1580999
-0.79387689 -0.63711953 2.1945
-0.8040061 -0.6353991 2.2225001
-0.81153065 -0.63140386 2.2433
-0.82889503 -0.63475955 2.2913001
-0.79033166 -0.59554607 2.1847
-0.82050222 -0.6082291 2.2681
-0.8074066 -0.5886302 2.2319
-0.79351515 -0.56878173 2.1935
-0.82383037 -0.58041883 2.2772999
-0.82068312 -0.5681476 2.2686
-0.82733941 -0.56262022 2.2869999
-0.82028514 -0.54777408 2.2674999
-0.81934458 -0.53710848 2.2649
-0.83609396 -0.53784555 2.3111999
-0.83309144 -0.5257082 2.3029001
-0.83652812 -0.51762885 2.3124001
-0.82672447 -0.50143462 2.2853
-0.82046604 -0.48758742 2.2679999
-0.82571155 -0.48058924 2.2825
-0.82911205 -0.47241127 2.2918999
-0.87140149 -0.48583171 2.4087999
-0.84108627 -0.45862627 2.325
-0.85432655 -0.45537984 2.3615999
-0.83906043 -0.43696356 2.3194001
-0.84423351 -0.42931518 2.3336999
-0.83880723 -0.41627982 2.3187001
-0.84094155 -0.40703696 2.3246
-0.86355138 -0.40740165 2.3871
-0.85034722 -0.39075497 2.3506
-0.84944284 -0.37993315 2.3480999
-0.85490537 -0.37190327 2.3631999
-0.85928261 -0.36328071 2.3752999
-0.85150486 -0.34956101 2.3538001
-0.85772711 -0.34160766 2.3710001
-0.85360307 -0.32950801 2.3596001
-0.87628531 -0.32752874 2.4223001
-0.85291576 -0.30834514 2.3577001
-0.85729301 -0.29942521 2.3698001
-0.86351526 -0.29101983 2.3870001
-0.84209919 -0.27348599 2.3278
-0.84394413 -0.26374632 2.3329
-0.86242998 -0.2589581 2.3840001
-0.86546868 -0.249268 2.3924
-0.8528434 -0.23518384 2.3575001
-0.8675307 -0.22860627 2.3980999
-0.86782014 -0.21805118 2.3989
-0.86394936 -0.20649466 2.3882
-0.86742216 -0.19669823 2.3978
-0.85280716 -0.18293667 2.3573999
-0.8825075 -0.17849645 2.4395001
-0.85899323 -0.16321722 2.3745
-0.86821806 -0.1543338 2.4000001
-0.84879166 -0.14048234 2.3462999
-0.85765475 -0.13144243 2.3708
-0.87024391 -0.12271077 2.4056001
-0.85888475 -0.11058716 2.3742001
-0.86195964 -0.10042351 2.3827
-0.85682267 -0.089328401 2.3685
-0.86894155 -0.079946764 2.402
-0.84759784 -0.067599423 2.3429999
-0.86007851 -0.058058299 2.3775001
-0.85544807 -0.047265936 2.3647001
-0.85457975 -0.036748812 2.3622999
-0.85942733 -0.026428731 2.3757
-0.84191829 -0.015576262 2.3273001
-0.87433171 -0.0054648155 2.4168999
-0.85888475 0.0051536211 2.3742001
-0.86094671 0.015713144 2.3799
-0.85682267 0.026134504 2.3685
-0.86485374 0.036974479 2.3907001
-0.95254374 0.052392699 2.6331
-0.85892087 0.057765499 2.3743
-0.85826969 0.06823606 2.3724999
-0.92577362 0.084944226 2.5590999
-0.89697778 0.09329062 2.4795001
-0.81710166 0.094993085 2.2586999
-0.84412503 0.10847579 2.3334
-0.76956677 0.10832223 2.1273
-0.97681767 0.14946099 2.7002001
-0.80588722 0.13317987 2.2277
-0.82589245 0.14660363 2.283
-0.80190796 0.15217003 2.2167001
-0.81695706 0.16503401 2.2583001
-0.77835745 0.16677186 2.1515999
-0.77810425 0.17624988 2.1508999
-0.76623857 0.18294908 2.1180999
-0.78826958 0.19786607 2.1789999
-0.75296205 0.19822769 2.0813999
-0.74710166 0.20583732 2.0652001
-0.76229542 0.21936204 2.1071999
-0.72713262 0.21815124 2.01
-0.7445693 0.23250398 2.0581999
-0.71653312 0.23252721 1.9807
-0.71418172 0.24051332 1.9742
-0.70857441 0.24730547 1.9586999
-0.69117391 0.24969968 1.9105999
-0.66769588 0.2493975 1.8457
-0.67203695 0.25925186 1.8577
-0.66346329 0.26407224 1.834
-0.6375615 0.26157331 1.7624
-0.65662605 0.27743909 1.8151
-0.64642453 0.28104782 1.7869
-0.6382488 0.28531218 1.7643
-0.61647099 0.28312916 1.7041
-0.63644004 0.3000972 1.7593
-0.61364931 0.29686841 1.6963
-0.60087925 0.29805174 1.661
-0.60626942 0.30815262 1.6759
-0.58756655 0.30584446 1.6242
-0.56238824 0.29962805 1.5546
-0.57902908 0.3155874 1.6006
-0.58253813 0.3246364 1.6102999
-0.56994897 0.32460296 1.5755
-0.55464667 0.32268262 1.5332
-0.53424352 0.31735727 1.4768
-0.52454841 0.31802416 1.45
-0.52957684 0.32756045 1.4639
-0.50577319 0.31903318 1.3981
-0.50866729 0.3270902 1.4061
-0.50772667 0.33270535 1.4035
-0.48670855 0.32489499 1.3454
-0.49915302 0.33931705 1.3798
-0.49578866 0.34310377 1.3705
-0.48240367 0.33975059 1.3335
-0.47520468 0.34050199 1.3135999
-0.45878091 0.3343541 1.2682
-0.45140103 0.33450571 1.2478
-0.44474471 0.33502153 1.2294
-0.44528735 0.34088534 1.2309
-0.4365328 0.33953118 1.2067
-0.43993333 0.34756553 1.2161
-0.42408833 0.34024271 1.1723
-0.43273434 0.35248062 1.1962
-0.41309088 0.34154081 1.1418999
-0.41678083 0.34969744 1.1521
-0.3964501 0.33749583 1.0959001
-0.40567487 0.35031864 1.1214
-0.76079667 -0.68431038 2.1294999
-0.79512995 -0.70532864 2.2256
-0.79755932 -0.69759017 2.2323999
-0.80595505 -0.69493592 2.2558999
-0.80395436 -0.68323803 2.2502999
-0.78444767 -0.65692955 2.1956999
-0.78727007 -0.64952731 2.2035999
-0.7956301 -0.64655513 2.227
-0.83339304 -0.66690457 2.3327
-0.811064 -0.6389752 2.2702
-0.8187809 -0.63489807 2.2918
-0.81095684 -0.61877149 2.2699001
-0.83028483 -0.62321961 2.3239999
-0.8108139 -0.59854662 2.2695
-0.81853086 -0.59408975 2.2911
-0.82535458 -0.58880413 2.3102
-0.80477607 -0.56414056 2.2526
-0.84375376 -0.58099705 2.3617001
-0.80584788 -0.54489928 2.2556
-0.84557581 -0.56127352 2.3668001
-0.82764113 -0.53910226 2.3166001
-0.84864831 -0.54225856 2.3754001
-0.83764452 -0.52483678 2.3446
-0.81163561 -0.49847248 2.2718
-0.85968781 -0.51731998 2.4063001
-0.82603335 -0.48682162 2.3120999
-0.83535808 -0.48195478 2.3382001
-0.84010965 -0.4742749 2.3515
-0.85675818 -0.47304583 2.3980999
-0.84679049 -0.45703816 2.3701999
-0.84654039 -0.44640213 2.3694999
-0.84314638 -0.43415341 2.3599999
-0.84972012 -0.42699787 2.3784001
-0.86733329 -0.42508978 2.4277
-0.84378946 -0.40308374 2.3618
-0.85164934 -0.39627403 2.3838
-0.85797292 -0.38857353 2.4015
-0.84482557 -0.37213933 2.3647001
-0.84532577 -0.36187369 2.3661001
-0.8445397 -0.35106093 2.3638999
-0.85150641 -0.34339422 2.3834
-0.85597223 -0.33457714 2.3959
-0.87340677 -0.33055753 2.4447
-0.8707273 -0.31874233 2.4372001
-0.85422164 -0.30210385 2.391
-0.84032398 -0.28676486 2.3520999
-0.86986983 -0.28605705 2.4347999
-0.88523221 -0.28012797 2.4777999
-0.8593663 -0.26128265 2.4054
-0.85243529 -0.24860115 2.3859999
-0.88240981 -0.24639682 2.4698999
-0.86997706 -0.23213342 2.4351001
-0.86143839 -0.21916921 2.4112
-0.84939855 -0.20556949 2.3775001
-0.86083102 -0.19765802 2.4094999
-0.86000937 -0.18680121 2.4072001
-0.84532577 -0.17312582 2.3661001
-0.84436113 -0.16245423 2.3634
-0.86376065 -0.15547201 2.4177001
-0.86040229 -0.14419451 2.4082999
-0.87883717 -0.13638233 2.4598999
-0.85732985 -0.12240981 2.3996999
-0.86554694 -0.11284622 2.4226999
-0.86561841 -0.10211782 2.4229
-0.86826217 -0.091659196 2.4303
-0.86201006 -0.080306232 2.4128001
-0.85879463 -0.06935361 2.4038
-0.88776886 -0.060680993 2.4849
-0.87926596 -0.049192794 2.4611001
-0.86644012 -0.037727308 2.4252
-0.86844081 -0.027041698 2.4308
-0.85979497 -0.016107004 2.4066
-0.86869085 -0.0054978277 2.4315
-0.85329276 0.0051844451 2.3884001
-0.86293894 0.01594753 2.4154
-0.86722612 0.02678442 2.4274001
-0.88291001 0.038221031 2.4712999
-0.89209175 0.049684618 2.497
-0.8192454 0.055789948 2.2931001
-0.84250337 0.067824773 2.3582001
-0.76183283 0.070780776 2.1324
-0.82171047 0.086536974 2.3
-0.76254731 0.089765459 2.1343999
-0.92135185 0.11988866 2.5789001
-0.84228897 0.12004912 2.3576
-0.82292521 0.12749738 2.3034
-0.82946318 0.13879955 2.3217001
-0.81356484 0.14623117 2.2772
-0.77876717 0.14963695 2.1798
-0.78409046 0.16038619 2.1947
-0.77290797 0.16768648 2.1633999
-0.76386917 0.17520101 2.1380999
-0.77480155 0.18731962 2.1687
-0.74797094 0.19011126 2.0936
-0.7984525 0.21284668 2.2349
-0.75725985 0.21125934 2.1196001
-0.72521311 0.21131502 2.0299001
-0.72378397 0.21987692 2.0258999
-0.71856797 0.22720595 2.0113001
-0.72239071 0.23737569 2.0220001
-0.70384866 0.24001382 1.9701
-0.68891495 0.24346717 1.9283
-0.70116913 0.25649565 1.9626
-0.69138002 0.26149106 1.9352
-0.67162329 0.26234999 1.8799
-0.66337043 0.26735514 1.8568
-0.63721859 0.26471978 1.7836
-0.63486063 0.27161548 1.777
-0.63889778 0.281268 1.7883
-0.64411384 0.29155433 1.8029
-0.62650067 0.29135337 1.7536
-0.59291768 0.28309062 1.6596
-0.61517531 0.30134866 1.7219
-0.59992015 0.30131757 1.6792001
-0.59749073 0.30750906 1.6724
-0.58445054 0.30804762 1.6359
-0.5631575 0.30381045 1.5763
-0.56594419 0.31233415 1.5841
-0.56480092 0.31870937 1.5809
-0.56390774 0.32520047 1.5784
-0.53575528 0.31561103 1.4996001
-0.52646637 0.31666964 1.4736
-0.53000325 0.32537159 1.4835
-0.51539111 0.32279441 1.4426
-0.5146051 0.32868564 1.4404
-0.50213659 0.32695064 1.4055001
-0.50896031 0.33770719 1.4246
-0.48388031 0.32706839 1.3544
-0.48155808 0.33147231 1.3479
-0.48998955 0.34335411 1.3715
-0.49048972 0.34978896 1.3729
-0.46887514 0.34019095 1.3124
-0.45576349 0.33633143 1.2757
-0.4515478 0.33882174 1.2639
-0.44701049 0.34096217 1.2512
-0.44011527 0.34116226 1.2319
-0.42957595 0.33832127 1.2024
-0.42982602 0.34385011 1.2031
-0.4343276 0.35283893 1.2157
-0.42403835 0.34974021 1.1869
-0.40742552 0.3410922 1.1404001
-0.41410637 0.3518222 1.1591001
-0.39367077 0.33934358 1.1019
-0.40195933 0.35147449 1.1251
-0.77913517 -0.70972908 2.2086
-0.76862258 -0.69049698 2.1788001
-0.78054625 -0.69140297 2.2126
-0.83730751 -0.73116297 2.3735001
-0.79292864 -0.68244863 2.2477
-0.80541676 -0.68307865 2.2830999
-0.79151756 -0.66134709 2.2437
-0.84647959 -0.69663626 2.3994999
-0.79074138 -0.64083099 2.2414999
-0.79857302 -0.6371457 2.2637
-0.80076021 -0.62883115 2.2699001
-0.82697123 -0.63902551 2.3441999
-0.82171488 -0.62464088 2.3292999
-0.85865027 -0.64193106 2.434
-0.82358462 -0.60536939 2.3346
-0.85064232 -0.61457163 2.4112999
-0.83857751 -0.59532028 2.3771
-0.81628221 -0.56923789 2.3139
-0.82612455 -0.56572318 2.3418
-0.82340825 -0.55351889 2.3341
-0.82661843 -0.54529238 2.3432
-0.8318395 -0.53828645 2.358
-0.85409945 -0.54196119 2.4210999
-0.81413031 -0.5063715 2.3078001
-0.83635503 -0.50968796 2.3708
-0.84291661 -0.50309747 2.3894
-0.84256387 -0.49230209 2.3884001
-0.83811885 -0.47917596 2.3757999
-0.85889721 -0.48026553 2.4347
-0.83494395 -0.45638257 2.3668001
-0.83917719 -0.44815418 2.3787999
-0.85011321 -0.44331482 2.4098001
-0.82510155 -0.41990638 2.3389001
-0.87085629 -0.43225136 2.4686
-0.85829753 -0.41523534 2.4330001
-0.84048241 -0.3960579 2.3824999
-0.85977918 -0.39434996 2.4372001
-0.86912769 -0.38771924 2.4637001
-0.8645063 -0.37479717 2.4505999
-0.93544906 -0.3938019 2.6517
-0.84824347 -0.34643427 2.4045
-0.88225085 -0.34923995 2.5009
-0.85833281 -0.32898903 2.4331
-0.87657118 -0.32496756 2.4848001
-0.86083752 -0.30832028 2.4402001
-0.87350202 -0.30188277 2.4761
-0.85984975 -0.28636256 2.4374001
-0.87978142 -0.28194818 2.4939001
-0.87780589 -0.27028754 2.4883001
-0.87533653 -0.25853065 2.4813001
-0.86055523 -0.24335416 2.4394
-0.86542356 -0.23385885 2.4532001
-0.88052225 -0.22687721 2.4960001
-0.88087499 -0.215902 2.497
-0.85177124 -0.19806819 2.4145
-0.85046595 -0.18708058 2.4108
-0.86683464 -0.17979154 2.4572001
-0.88154525 -0.17176816 2.4988999
-0.86930406 -0.15846223 2.4642
-0.86842209 -0.1473918 2.4617
-0.87537175 -0.13757434 2.4814
-0.87254959 -0.12616929 2.4734001
-0.88006359 -0.11619989 2.4947
-0.85607511 -0.10227799 2.4267001
-0.85653365 -0.091572456 2.428
-0.88673109 -0.083661199 2.5136001
-0.85099512 -0.069598854 2.4123001
-0.83720165 -0.057953291 2.3731999
-0.88404995 -0.050090261 2.506
-0.85434639 -0.037674416 2.4217999
-0.86284828 -0.027209679 2.4459
-0.86030829 -0.016321845 2.4387
-0.85522836 -0.0054815477 2.4243
-0.85949689 0.0052886372 2.4363999
-0.8589325 0.016075617 2.4347999
-0.92747641 0.029010016 2.6291001
-0.96712804 0.042399932 2.7414999
-0.82979345 0.046803426 2.3522
-0.8417877 0.058055017 2.3862
-0.92091483 0.075081237 2.6105001
-0.84305775 0.079324655 2.3898001
-0.89075267 0.095002547 2.5250001
-0.80146569 0.095548235 2.2718999
-0.91131938 0.12009322 2.5833001
-0.84616214 0.12213685 2.3986001
-0.87847614 0.1378371 2.4902
-0.88905936 0.15066658 2.5202
-0.76548284 0.13934086 2.1698999
-0.84923124 0.16525418 2.4073
-0.77204442 0.15993309 2.1884999
-0.77447855 0.17016684 2.1954
-0.75698107 0.17583199 2.1458001
-0.76364845 0.18697412 2.1647
-0.7414943 0.19086495 2.1019001
-0.75320631 0.20334195 2.1350999
-0.74096507 0.20934568 2.1004
-0.71909314 0.21219987 2.0383999
-0.71454239 0.21983351 2.0255001
-0.71694124 0.2295782 2.0323
-0.71630621 0.23837355 2.0304999
-0.70787495 0.24446054 2.0065999
-0.69517511 0.24880797 1.9706
-0.68251055 0.25284937 1.9347
-0.66335493 0.25408629 1.8803999
-0.65644062 0.2596845 1.8608
-0.65682864 0.2680895 1.8619
-0.63319284 0.26639691 1.7948999
-0.63897836 0.27685824 1.8113
-0.64296466 0.28666279 1.8226
-0.62807763 0.2879158 1.7804
-0.60895729 0.28680098 1.7262
-0.60828704 0.29412699 1.7243
-0.62109274 0.3081215 1.7606
-0.60669959 0.30860287 1.7198
-0.59241223 0.30877778 1.6793
-0.57583189 0.30736971 1.6323
-0.56722426 0.30990091 1.6079
-0.55822849 0.31199893 1.5824
-0.56704783 0.32405177 1.6073999
-0.55794626 0.32585976 1.5816
-0.54605782 0.3257764 1.5479
-0.52764308 0.32141882 1.4957
-0.54277706 0.33745652 1.5386
-0.52824283 0.33505639 1.4974
-0.52161068 0.33740252 1.4786
-0.4988215 0.32892793 1.414
-0.49949175 0.33564481 1.4159
-0.4763498 0.32607827 1.3503
-0.48760331 0.33990726 1.3822
-0.48456946 0.34387985 1.3736
-0.47102293 0.34018371 1.3352
-0.45804092 0.33656198 1.2984
-0.45045629 0.33664784 1.2769001
-0.45998114 0.34954479 1.3039
-0.43966138 0.33962688 1.2463
-0.43828559 0.34407014 1.2424001
-0.42022359 0.33516994 1.1912
-0.42840794 0.34707969 1.2144001
-0.41087511 0.33803692 1.1647
-0.41062817 0.34299234 1.164
-0.40318462 0.34183991 1.1429
-0.40491322 0.34839228 1.1478
-0.40297297 0.35178527 1.1423
-0.38233572 0.33857259 1.0838
-0.77144289 -0.71178561 2.2149999
-0.76809943 -0.69892693 2.2054
-0.81205249 -0.72858864 2.3316
-0.78655833 -0.69570607 2.2584
-0.82681966 -0.72079599 2.3740001
-0.79543954 -0.68331802 2.2839
-0.79564846 -0.67337316 2.2844999
-0.79780781 -0.66504884 2.2907
-0.8087787 -0.6639027 2.3222001
-0.83030248 -0.67100561 2.3840001
-0.82096851 -0.65301585 2.3571999
-0.84193504 -0.65897971 2.4173999
-0.80331063 -0.6185267 2.3065
-0.8383826 -0.63486296 2.4072001
-0.83911401 -0.62473941 2.4093001
-0.81128633 -0.59369767 2.3294001
-0.81462979 -0.58577853 2.339
-0.83148658 -0.58731943 2.3873999
-0.85583144 -0.59362525 2.4572999
-0.82929242 -0.56466466 2.3810999
-0.84545273 -0.56491005 2.4275
-0.8431192 -0.5526225 2.4208
-0.8438158 -0.54234177 2.4228001
-0.86307573 -0.54373831 2.4781001
-0.87209618 -0.53832406 2.5039999
-0.83563119 -0.50518197 2.3993001
-0.83413357 -0.49366248 2.395
-0.8339594 -0.48294759 2.3945
-0.85722458 -0.48551258 2.4612999
-0.8526969 -0.47209793 2.4482999
-0.85405523 -0.4619824 2.4521999
-0.83914882 -0.44324121 2.4094
-0.86492163 -0.44584867 2.4834001
-0.8615433 -0.43314436 2.4737
-0.87599695 -0.42926422 2.5151999
-0.85036349 -0.40588248 2.4416001
-0.85283625 -0.3962107 2.4487
-0.88428605 -0.39956939 2.539
-0.85948837 -0.37742776 2.4677999
-0.87011105 -0.37102059 2.4983001
-0.86046356 -0.35595775 2.4705999
-0.8652699 -0.34693578 2.4844
-0.85694599 -0.3326939 2.4605
-0.88519156 -0.33239597 2.5416
-0.87164348 -0.31621718 2.5027001
-0.84036779 -0.2941775 2.4129
-0.86788201 -0.29276559 2.4919
-0.86126465 -0.27957401 2.4728999
-0.86753374 -0.27056995 2.4909
-0.86314541 -0.25821805 2.4783001
-0.87240964 -0.24988844 2.5049
-0.87028515 -0.23820581 2.4988
-0.87780803 -0.22909509 2.5204
-0.85990638 -0.21348101 2.4690001
-0.84977138 -0.20015182 2.4398999
-0.88205701 -0.19653237 2.5325999
-0.8669765 -0.18214028 2.4893
-0.8713997 -0.17198126 2.5020001
-0.87446451 -0.16145886 2.5107999
-0.87550932 -0.15051122 2.5137999
-0.86053324 -0.13698664 2.4707999
-0.87846977 -0.12866369 2.5223
-0.84844792 -0.11347038 2.4361
-0.8701458 -0.10529991 2.4984
-0.86537439 -0.093710899 2.4847
-0.84879619 -0.081115015 2.4370999
-0.85092074 -0.070490368 2.4432001
-0.88174355 -0.061823841 2.5316999
-0.86617541 -0.049710482 2.487
-0.87157381 -0.038929816 2.5025001
-0.85046798 -0.027165182 2.4419
-0.86659336 -0.016653141 2.4881999
-0.88505226 -0.0057458687 2.5411999
-0.83542222 0.0052068029 2.3987
-0.87460381 0.016580043 2.5112
-0.89208752 0.028263001 2.5613999
-0.93332404 0.041445687 2.6798
-0.9908601 0.056609023 2.845
-0.88926643 0.062120475 2.5532999
-0.82075959 0.067778759 2.3566
-0.92656738 0.08830668 2.6603999
-0.91803449 0.099175133 2.6359
-0.98821318 0.1193312 2.8374
-1.0276037 0.13716371 2.9505
-0.8903113 0.13016693 2.5562999
-0.80484307 0.12791251 2.3109
-0.87439489 0.15009266 2.5106001
-0.83420324 0.15380858 2.3952
-0.79373294 0.15644675 2.279
-0.75977552 0.15942153 2.1815
-0.77635372 0.17277893 2.2291
-0.7551434 0.17766748 2.1682
-0.76935327 0.1908005 2.2090001
-0.74434668 0.1940704 2.1372001
-0.73466444 0.20089436 2.1094
-0.71986246 0.20600675 2.0669
-0.72338009 0.21621817 2.0769999
-0.72515631 0.22597647 2.0820999
-0.71394169 0.23156638 2.0499001
-0.70053285 0.23613128 2.0114
-0.72226566 0.25264743 2.0738001
-0.6972242 0.2527599 2.0019
-0.68486023 0.25699228 1.9664
-0.66883928 0.25949124 1.9204
-0.65180832 0.26117772 1.8715
-0.64933556 0.26844946 1.8644
-0.64393717 0.27441153 1.8489
-0.63397634 0.27823389 1.8203
-0.62391096 0.28175557 1.7914
-0.63004076 0.29254082 1.809
-0.59792924 0.28523922 1.7168
-0.61004943 0.29878378 1.7516
-0.599392 0.30119115 1.721
-0.5807938 0.29923606 1.6676
-0.59019738 0.31159103 1.6946
-0.57539541 0.31109813 1.6521
-0.57288778 0.31703216 1.6449
-0.54882157 0.31069762 1.5757999
-0.56365836 0.32626936 1.6184
-0.52656639 0.31149933 1.5118999
-0.51876491 0.31348535 1.4895
-0.53360164 0.32924098 1.5321
-0.49017102 0.30868083 1.4074
-0.51413274 0.33031267 1.4762
-0.51402831 0.33678642 1.4759001
-0.50232601 0.33551112 1.4423
-0.49236518 0.3351233 1.4137
-0.47484663 0.32924175 1.3634
-0.48094156 0.33958757 1.3809
-0.47216487 0.33939859 1.3557
-0.46822929 0.34252772 1.3444
-0.45151177 0.33604354 1.2964
-0.4498052 0.34049702 1.2915
-0.45262629 0.34839207 1.2996
-0.43462014 0.34006292 1.2479
-0.43545604 0.34625798 1.2503
-0.42403239 0.34257001 1.2175
-0.41226047 0.3383055 1.1837
-0.4071756 0.33931398 1.1691
-0.40797663 0.34517285 1.1714
-0.41246945 0.3542226 1.1842999
-0.39777198 0.34666213 1.1421
-0.39805061 0.35197005 1.1429
-0.38753253 0.34760079 1.1127
-0.8017506 -0.74941546 2.3320999
-0.75152308 -0.69277877 2.1860001
-0.79655939 -0.72402632 2.3169999
-0.82595336 -0.74009645 2.4024999
-0.83200407 -0.73479289 2.4201
-0.80845451 -0.70357311 2.3515999
-0.80034113 -0.68619514 2.3280001
-0.81216747 -0.68586522 2.3624001
-0.80762947 -0.6716218 2.3492
-0.83520132 -0.68378395 2.4294
-0.82949448 -0.66841877 2.4128001
-0.8137145 -0.64521348 2.3669
-0.82670975 -0.64486068 2.4047
-0.83998001 -0.64438379 2.4433
-0.86428589 -0.65188837 2.5139999
-0.83709216 -0.62058663 2.4349
-0.83850169 -0.6108225 2.4389999
-0.86205125 -0.61686498 2.5074999
-0.84829968 -0.5960893 2.4675
-0.85589743 -0.59039485 2.4895999
-0.83722973 -0.56672525 2.4353001
-0.86260134 -0.57277966 2.5091
-0.84004879 -0.54697543 2.4435
-0.85957593 -0.54860932 2.5002999
-0.843521 -0.52748877 2.4535999
-0.85325027 -0.52257371 2.4819
-0.85417849 -0.51213104 2.4846001
-0.84558374 -0.4960776 2.4596
-0.83709216 -0.48030499 2.4349
-0.86071044 -0.48276126 2.5035999
-0.84905607 -0.46527934 2.4697001
-0.83588892 -0.44728842 2.4314001
-0.87195235 -0.45534587 2.5362999
-0.88195664 -0.44920099 2.5653999
-0.85094684 -0.42243749 2.4751999
-0.87374014 -0.42248949 2.5415001
-0.86277318 -0.40606457 2.5095999
-0.87693739 -0.4014264 2.5508001
-0.87635285 -0.38986185 2.5490999
-0.88223171 -0.38110438 2.5662
-0.88236922 -0.36978921 2.5666001
-0.88642585 -0.36006245 2.5783999
-0.89928359 -0.35369259 2.6157999
-0.87635285 -0.33337682 2.5490999
-0.85892278 -0.31567386 2.4984
-0.8908608 -0.3159278 2.5913
-0.86676115 -0.29620793 2.5211999
-0.88821363 -0.29208922 2.5836
-0.88264424 -0.27887964 2.5674
-0.87903446 -0.26640752 2.5569
-0.84413987 -0.24495032 2.4554
-0.88687283 -0.24591786 2.5797
-0.87068033 -0.23020402 2.5325999
-0.86937398 -0.21865158 2.5288
-0.86951149 -0.20747736 2.5292001
-0.88542891 -0.19986147 2.5755
-0.86951149 -0.18505973 2.5292001
-0.88113153 -0.17617424 2.563
-0.88120031 -0.16482849 2.5632
-0.8873198 -0.15453477 2.5810001
-0.88594455 -0.14287461 2.5769999
-0.87679982 -0.13009709 2.5504
-0.85190946 -0.11542202 2.4779999
-0.85912907 -0.10532521 2.4990001
-0.87023348 -0.095468432 2.5313001
-0.8748402 -0.084696308 2.5446999
-0.86239511 -0.072374381 2.5085001
-0.87215871 -0.061950829 2.5369
-0.85778826 -0.049872387 2.4951
-0.87171173 -0.03944473 2.5355999
-0.88948566 -0.028782699 2.5873001
-0.86239511 -0.016789006 2.5085001
-0.87734991 -0.0057702884 2.552
-0.87721235 0.0055386992 2.5516
-0.9290902 0.017843092 2.7025001
-0.81663674 0.02621064 2.3754001
-0.87425578 0.039329942 2.543
-0.94211978 0.054527722 2.7404001
-0.96958852 0.06861645 2.8203001
-0.86634862 0.072478339 2.52
-0.81643045 0.078826755 2.3748
-0.77545077 0.084866434 2.2556
-0.9427042 0.11532322 2.7421
-0.87370569 0.11814535 2.5414
-0.89914614 0.13317631 2.6154001
-0.82791299 0.13329825 2.4082
-0.83031952 0.1443893 2.4152
-0.79298407 0.14811911 2.3066001
-0.80989844 0.16171885 2.3557999
-0.80336648 0.1707707 2.3368001
-0.75420457 0.17004281 2.1938
-0.76757807 0.18295278 2.2327001
-0.77985126 0.19593112 2.2684
-0.75520164 0.19947335 2.1967001
-0.74402845 0.20611338 2.1642001
-0.75317323 0.21835579 2.1908
-0.72326362 0.2190081 2.1038001
-0.69655114 0.21989861 2.0260999
-0.69424772 0.22812094 2.0193999
-0.70353013 0.24024017 2.0464001
-0.69459158 0.24614179 2.0204
-0.66275674 0.24340405 1.9278001
-0.6695981 0.25454837 1.9477
-0.65818429 0.25869399 1.9145
-0.63150626 0.25634912 1.8369
-0.63989472 0.26800311 1.8613
-0.61658579 0.26618913 1.7934999
-0.62377101 0.27733207 1.8144
-0.61500442 0.28136238 1.7889
-0.60964131 0.28676763 1.7733001
-0.60991627 0.29475936 1.7740999
-0.60073715 0.29806733 1.7474
-0.58323824 0.2969034 1.6964999
-0.56467366 0.29473209 1.6425
-0.57416224 0.30708614 1.6701
-0.56226712 0.30797228 1.6355
-0.55855417 0.31313887 1.6247
-0.54910004 0.31491706 1.5972
-0.54019588 0.31677401 1.5713
-0.53424835 0.32017329 1.554
-0.51265836 0.31384313 1.4912
-0.53015721 0.33138993 1.5421
-0.50286037 0.3208096 1.4627
-0.51265836 0.33366907 1.4912
-0.49808168 0.33060244 1.4488
-0.49498761 0.33492959 1.4398
-0.48584282 0.33500478 1.4132
-0.47821069 0.33590677 1.391
-0.46885964 0.3353824 1.3638
-0.45235774 0.32940963 1.3158
-0.44761348 0.331725 1.302
-0.44204408 0.33329588 1.2858
-0.45524558 0.3491182 1.3242
-0.43372437 0.33820516 1.2616
-0.43011457 0.34093493 1.2510999
-0.424889 0.34227005 1.2359
-0.4149535 0.33961561 1.207
-0.40264586 0.33473298 1.1712
-0.41185936 0.34770176 1.198
-0.407287 0.34909195 1.1847
-0.39377609 0.34258768 1.1454
-0.39559814 0.34927252 1.1507
-0.39625138 0.35495728 1.1526
-0.38249978 0.34756956 1.1126
-0.80769664 -0.76496875 2.3805001
-0.78024745 -0.72878039 2.2995999
-0.81085211 -0.74677527 2.3898001
-0.77631164 -0.70482451 2.2880001
-0.80338752 -0.7189135 2.3678
-0.80026597 -0.70566744 2.3585999
-0.82364357 -0.71552348 2.4275
-0.83942086 -0.71826553 2.474
-0.81180215 -0.68402958 2.3926001
-0.86595392 -0.71834755 2.5522001
-0.83439922 -0.68127292 2.4591999
-0.83416176 -0.67018354 2.4584999
-0.83463675 -0.65966344 2.4598999
-0.82109886 -0.63823879 2.4200001
-0.83752084 -0.64006418 2.4684
-0.84759796 -0.63669449 2.4981
-0.83202416 -0.61412829 2.4521999
-0.83596003 -0.60611445 2.4638
-0.83891195 -0.59729719 2.4725001
-0.84451038 -0.59025258 2.4890001
-0.84484965 -0.5794546 2.49
-0.84746224 -0.57017726 2.4977
-0.87131482 -0.57484472 2.5680001
-0.84522289 -0.54659075 2.4911001
-0.84708893 -0.53673315 2.4965999
-0.86228949 -0.53510165 2.5414
-0.85061765 -0.51674813 2.507
-0.85625005 -0.50898582 2.5236001
-0.86218774 -0.50125384 2.5411
-0.87124693 -0.49514076 2.5678
-0.86147517 -0.47833511 2.539
-0.87005943 -0.47173715 2.5643001
-0.8642574 -0.45730278 2.5472
-0.87233275 -0.45018157 2.5710001
-0.85078728 -0.42795008 2.5074999
-0.87654001 -0.42945477 2.5834
-0.8698898 -0.41483441 2.5638001
-0.88906008 -0.41236383 2.6203001
-0.86917728 -0.39178893 2.5617001
-0.86798966 -0.37991628 2.5581999
-0.87375778 -0.37102827 2.5752001
-0.87301129 -0.35930836 2.573
-0.86422354 -0.34440342 2.5471001
-0.86361277 -0.33287987 2.5453
-0.88515812 -0.32962295 2.6087999
-0.87267202 -0.31357476 2.572
-0.88549745 -0.30661729 2.6098001
-0.89017969 -0.29661143 2.6236
-0.88827968 -0.28437597 2.618
-0.86690396 -0.26620954 2.5550001
-0.88787252 -0.26105157 2.6168001
-0.88946718 -0.24990256 2.6215
-0.87552208 -0.23454887 2.5804
-0.88145977 -0.22462627 2.5978999
-0.87691325 -0.21201377 2.5845001
-0.88359731 -0.20208861 2.6041999
-0.8903833 -0.19201082 2.6242001
-0.87368989 -0.17699909 2.575
-0.88515812 -0.16776083 2.6087999
-0.88125622 -0.15551071 2.5973001
-0.86995757 -0.14215386 2.5639999
-0.88217229 -0.1326272 2.5999999
-0.88118833 -0.12096955 2.5971
-0.88074726 -0.10940503 2.5957999
-0.87715071 -0.097501285 2.5852001
-0.88702428 -0.087012835 2.6143
-0.87406313 -0.074324749 2.5761001
-0.87728637 -0.063140072 2.5855999
-0.88475096 -0.052121051 2.6076
-0.88373303 -0.04051812 2.6046
-0.87460595 -0.028675901 2.5776999
-0.85031229 -0.016772943 2.5060999
-0.85513031 -0.005698612 2.5202999
-0.81414324 0.0052085388 2.3994999
-0.94806379 0.018448533 2.7941999
-0.89272439 0.029032083 2.6310999
-1.0177215 0.046390153 2.9995
-0.98630255 0.057840694 2.9068999
-0.80620372 0.057809293 2.3761001
-0.9133876 0.077425279 2.6919999
-0.91678059 0.089687504 2.7019999
-1.032922 0.11454109 3.0443001
-0.88098472 0.10919978 2.5964999
-0.88050973 0.12064177 2.5950999
-0.88763499 0.13321196 2.6161001
-0.81807905 0.13345876 2.4110999
-0.77851713 0.13717343 2.2945001
-0.8035233 0.15207477 2.3682001
-0.77105254 0.15600054 2.2725
-0.75985575 0.16366012 2.2395
-0.75710744 0.17295721 2.2314
-0.74964285 0.18104351 2.2093999
-0.77098465 0.19626798 2.2723
-0.75340909 0.20163453 2.2205
-0.74696243 0.20966573 2.2014999
-0.73610497 0.21623285 2.1695001
-0.71069157 0.21805036 2.0946
-0.68544787 0.21925828 2.0202
-0.69589829 0.23169066 2.0510001
-0.69284457 0.23972362 2.0420001
-0.68880695 0.24732353 2.0301001
-0.67353857 0.25063875 1.9851
-0.65884697 0.25377727 1.9418
-0.66210425 0.26368007 1.9514
-0.63085496 0.25947514 1.8593
-0.62939602 0.26709598 1.855
-0.63584262 0.27813685 1.874
-0.62288153 0.28060308 1.8358001
-0.61877602 0.28683579 1.8237
-0.59740031 0.28473002 1.7607
-0.58728927 0.28758189 1.7309
-0.57524419 0.2891973 1.6954
-0.57497275 0.2965709 1.6946
-0.58756065 0.31073824 1.7316999
-0.55532748 0.30094481 1.6367
-0.55495423 0.30799112 1.6356
-0.54772723 0.31113443 1.6143
-0.54511464 0.31677043 1.6066
-0.53846443 0.31993914 1.587
-0.53330708 0.32384065 1.5718
-0.52109241 0.32322982 1.5358
-0.51691902 0.32739288 1.5235
-0.51386535 0.33217075 1.5145
-0.50032741 0.32995465 1.4746
-0.49506831 0.3329528 1.4591
-0.47440514 0.3252525 1.3982
-0.47376046 0.33099857 1.3963
-0.47993568 0.34158167 1.4145
-0.46480301 0.33688247 1.3699
-0.44892392 0.3312372 1.3231
-0.44766849 0.33615816 1.3194
-0.44668454 0.34125373 1.3164999
-0.44783819 0.34798455 1.3199
-0.43345198 0.34246758 1.2775
-0.41974437 0.33711982 1.2371
-0.41994795 0.34276852 1.2377
-0.41122803 0.34102246 1.212
-0.40644395 0.34236395 1.1979001
-0.40149018 0.34343532 1.1833
-0.40909046 0.35527995 1.2057
-0.38262525 0.3372936 1.1277
-0.38964871 0.34857437 1.1483999
-0.38391459 0.34845927 1.1315
-0.37153026 0.34207144 1.095
-0.80443585 -0.77210265 2.4026999
-0.80614334 -0.76307076 2.4078
-0.80055207 -0.74718142 2.3910999
-0.79583138 -0.73224115 2.3770001
-0.78689206 -0.71360016 2.3503001
-0.79067534 -0.70656502 2.3615999
-0.79208148 -0.69733691 2.3657999
-0.84732437 -0.73475605 2.5308001
-0.83332956 -0.71158975 2.4890001
-0.83319557 -0.70044655 2.4886
-0.83038324 -0.68709058 2.4802001
-0.81970292 -0.66740298 2.4482999
-0.82680082 -0.66223788 2.4695001
-0.83212417 -0.655487 2.4854
-0.83825117 -0.64921761 2.5037
-0.84370846 -0.64227617 2.52
-0.82800609 -0.61936253 2.4730999
-0.82877612 -0.60896814 2.4754
-0.85800463 -0.6190874 2.5627
-0.82676733 -0.58560449 2.4693999
-0.84344065 -0.58624983 2.5192001
-0.85669887 -0.58412522 2.5588
-0.85830599 -0.57385975 2.5636001
-0.85562748 -0.56074309 2.5555999
-0.87534755 -0.56207997 2.6145
-0.85237992 -0.53604919 2.5459001
-0.87015802 -0.53571141 2.599
-0.8558284 -0.51556093 2.5562
-0.84384239 -0.4971706 2.5204
-0.87869561 -0.50607407 2.6245
-0.88194323 -0.49627033 2.6342001
-0.8545562 -0.46954799 2.5524001
-0.86155355 -0.46198854 2.5732999
-0.87400836 -0.45709804 2.6105001
-0.8743766 -0.44571662 2.6115999
-0.87387437 -0.43389329 2.6101
-0.88458818 -0.42750371 2.6421001
-0.87132984 -0.40956256 2.6025
-0.86701089 -0.396056 2.5896001
-0.86694396 -0.3845498 2.5894001
-0.8646003 -0.37206563 2.5824001
-0.89553624 -0.37352431 2.6747999
-0.87357306 -0.35280019 2.6092
-0.87246823 -0.34080526 2.6059
-0.8827467 -0.33313552 2.6366
-0.86684346 -0.31565955 2.5890999
-0.87933171 -0.30856755 2.6264
-0.88415289 -0.29855597 2.6408
-0.88569301 -0.28735226 2.6454
-0.87042594 -0.27087733 2.5998001
-0.87414223 -0.26046297 2.6108999
-0.88934237 -0.25321999 2.6563001
-0.88157493 -0.2393391 2.6331
-0.88321543 -0.2280935 2.638
-0.89868343 -0.22019243 2.6842
-0.88666391 -0.20551081 2.6482999
-0.87852818 -0.19199617 2.6240001
-0.88083827 -0.18084151 2.6308999
-0.8898446 -0.17091182 2.6578
-0.87581629 -0.15662436 2.6159
-0.86942148 -0.14397238 2.5968001
-0.8662073 -0.13197426 2.5871999
-0.87320477 -0.12148191 2.6080999
-0.88057047 -0.11085067 2.6301
-0.85900909 -0.096765839 2.5657001
-0.86021429 -0.085515082 2.5692999
-0.88425332 -0.076200105 2.6410999
-0.87849468 -0.064075358 2.6238999
-0.88100576 -0.05259677 2.6314001
-0.86044866 -0.039979871 2.5699999
-0.87896341 -0.029205434 2.6252999
-0.87400836 -0.017471677 2.6105001
-0.85746896 -0.0057908646 2.5611
-0.95791042 0.0062105237 2.8611
-0.94987512 0.018731778 2.8371
-0.97863489 0.032252967 2.9230001
-0.80376625 0.037129138 2.4007001
-0.93437368 0.05553057 2.7908001
-0.85164332 0.06188691 2.5437
-0.98198295 0.08435674 2.9330001
-0.99038655 0.098188244 2.9581001
-0.96735197 0.10870925 2.8893001
-0.88750094 0.11148345 2.6508
-0.88894063 0.12343107 2.6551001
-0.77035266 0.11716196 2.3009
-0.8020252 0.13259527 2.3954999
-0.77118975 0.1377055 2.3034
-0.80259442 0.15393703 2.3972001
-0.78746122 0.16145799 2.352
-0.74885821 0.1634555 2.2367001
-0.77283025 0.17891778 2.3083
-0.75321072 0.1843458 2.2497001
-0.74822211 0.19302896 2.2348001
-0.75508559 0.20479457 2.2553
-0.73282111 0.20845623 2.1888001
-0.73536557 0.21891394 2.1963999
-0.69137222 0.21496898 2.0650001
-0.69726479 0.22603075 2.0826001
-0.67891747 0.22906987 2.0278001
-0.6732927 0.23608431 2.0109999
-0.66401863 0.24162196 1.9833
-0.66164154 0.24951503 1.9762
-0.65899658 0.25724059 1.9683
-0.64449948 0.26011279 1.925
-0.6394105 0.26652271 1.9098001
-0.6228711 0.2678735 1.8604
-0.61912131 0.27445608 1.8492
-0.61125338 0.27905929 1.8257
-0.59923393 0.28150395 1.7898
-0.58982587 0.28489172 1.7617
-0.60291672 0.29919547 1.8008
-0.57134467 0.29109073 1.7065001
-0.5677622 0.29678091 1.6957999
-0.56140095 0.30088693 1.6768
-0.57010585 0.31309879 1.7028
-0.53997344 0.30369776 1.6128
-0.54636818 0.31452659 1.6319
-0.52313274 0.30807531 1.5625
-0.53321034 0.32106808 1.5926
-0.53622359 0.3299804 1.6016001
-0.50448412 0.31712639 1.5068001
-0.5163027 0.33138993 1.5421
-0.49664965 0.32534966 1.4834
-0.49651575 0.33183426 1.483
-0.47773319 0.32560506 1.4269
-0.46578062 0.3236241 1.3911999
-0.46280089 0.32767981 1.3823
-0.46919563 0.33841822 1.4014
-0.43775746 0.32153723 1.3075
-0.44910735 0.33581859 1.3414
-0.44251168 0.33674416 1.3217
-0.44696462 0.34604916 1.335
-0.43116179 0.33952153 1.2878
-0.43203232 0.34592578 1.2904
-0.43055916 0.35044548 1.286
-0.42988956 0.35559085 1.284
-0.41097304 0.3453837 1.2275
-0.39932185 0.34087774 1.1927
-0.3974804 0.34456721 1.1872
-0.39282665 0.34573275 1.1733
-0.4039422 0.36086261 1.2065001
-0.38311729 0.34732991 1.1443
-0.37913314 0.34873644 1.1324
-0.37464672 0.34956887 1.119
-0.80550092 -0.78363907 2.4386001
-0.82700425 -0.79346299 2.5037
-0.80672312 -0.76318067 2.4423001
-0.84434569 -0.78744417 2.5562
-0.86502326 -0.79512233 2.6187999
-0.84883791 -0.76885617 2.5697999
-0.84665787 -0.75552207 2.5632
-0.84431261 -0.74210125 2.5560999
-0.81838316 -0.70833057 2.4776001
-0.82426268 -0.70236045 2.4954
-0.8550809 -0.71714836 2.5887001
-0.83859825 -0.69207323 2.5388
-0.85534513 -0.69441789 2.5895
-0.84645969 -0.67584735 2.5625999
-0.8410756 -0.6602639 2.5462999
-0.87589061 -0.67584276 2.6517
-0.83615392 -0.63396317 2.5314
-0.85871428 -0.63954693 2.5997
-0.84616244 -0.61884582 2.5617001
-0.86948246 -0.62423533 2.6322999
-0.83288389 -0.58678508 2.5215001
-0.84064621 -0.580975 2.5450001
-0.85167861 -0.5771727 2.5783999
-0.84629452 -0.56216931 2.5620999
-0.87879735 -0.57196933 2.6605
-0.86475903 -0.55123007 2.618
-0.87407386 -0.54544038 2.6461999
-0.87301683 -0.53306758 2.6429999
-0.87351233 -0.52165037 2.6445
-0.8893013 -0.51914769 2.6923001
-0.85778946 -0.48924318 2.5969
-0.87929279 -0.48971033 2.6619999
-0.88034981 -0.47848749 2.6652
-0.87641907 -0.46459228 2.6533
-0.87641907 -0.4528335 2.6533
-0.87410694 -0.43991104 2.6463001
-0.88553572 -0.43378171 2.6809001
-0.86759973 -0.41335526 2.6266
-0.86796308 -0.40188304 2.6277001
-0.90320748 -0.40608361 2.7344
-0.87968916 -0.38370708 2.6631999
-0.86855763 -0.36719835 2.6294999
-0.87569237 -0.35846567 2.6510999
-0.86938339 -0.34421867 2.632
-0.8980546 -0.34352151 2.7188001
-0.88160497 -0.32540086 2.6689999
-0.90502423 -0.32190233 2.7399001
-0.86783093 -0.29702973 2.6273
-0.89141524 -0.29314187 2.6987
-0.88613027 -0.27951482 2.6826999
-0.88788092 -0.26815444 2.688
-0.87437111 -0.25234297 2.6471
-0.90542054 -0.24915591 2.7411001
-0.88698912 -0.23218329 2.6853001
-0.88510633 -0.21981508 2.6796
-0.90201831 -0.2119129 2.7307999
-0.90684086 -0.20087892 2.7454
-0.8842805 -0.18401718 2.6770999
-0.88117558 -0.17154846 2.6677001
-0.87496573 -0.15860021 2.6489
-0.87962317 -0.14764266 2.6630001
-0.88038278 -0.13595818 2.6652999
-0.87202597 -0.12296778 2.6400001
-0.86958164 -0.11095604 2.6326001
-0.87404084 -0.099798135 2.6461
-0.89706367 -0.090391107 2.7158
-0.90139073 -0.07873328 2.7289
-0.88553572 -0.065467298 2.6809001
-0.86462688 -0.052320931 2.6176
-0.88391721 -0.041628849 2.6760001
-0.87665033 -0.02952471 2.654
-0.91737783 -0.018588042 2.7772999
-0.89831883 -0.0061492464 2.7196
-0.88494116 0.0058154603 2.6791
-0.91440505 0.018277531 2.7683001
-0.98314315 0.032842193 2.9763999
-0.93689936 0.043867655 2.8364
-0.9329356 0.05619913 2.8243999
-0.84206653 0.062023155 2.5493
-1.0565056 0.091992848 3.1984999
-0.93234098 0.093690582 2.8225999
-0.9141078 0.1041228 2.7674
-0.86895406 0.11063813 2.6307001
-0.80190051 0.11285964 2.4277
-0.85240537 0.1314043 2.5806
-0.81828398 0.13712305 2.4772999
-0.80536878 0.14576432 2.4382
-0.77692884 0.1510409 2.3520999
-0.77676368 0.16143052 2.3515999
-0.79113233 0.1750312 2.3951001
-0.76094168 0.17856123 2.3037
-0.74885231 0.1857716 2.2671001
-0.73857957 0.19313261 2.2360001
-0.76341903 0.20987061 2.3111999
-0.74336904 0.21433239 2.2505
-0.70855415 0.21380092 2.1451001
-0.69091541 0.21774848 2.0917001
-0.69768679 0.22924332 2.1122
-0.69167513 0.23654814 2.0940001
-0.68708378 0.24419643 2.0801001
-0.6622442 0.24425344 2.0049
-0.66145152 0.25283566 2.0025001
-0.64721501 0.25607747 1.9594001
-0.63753682 0.26080191 1.9301
-0.6263392 0.26462474 1.8961999
-0.63347393 0.27613837 1.9177999
-0.59958386 0.26940984 1.8152
-0.59532285 0.27548259 1.8023
-0.59700745 0.2842721 1.8074
-0.59462917 0.29111773 1.8002
-0.5616309 0.28249779 1.7003
-0.57748592 0.29822084 1.7483
-0.57715565 0.30579391 1.7473
-0.5513252 0.29950523 1.6691
-0.54105246 0.30118382 1.638
-0.53477651 0.30486524 1.619
-0.54280311 0.31672379 1.6433001
-0.52248883 0.31188065 1.5818
-0.52734447 0.32185432 1.5965
-0.508946 0.31745365 1.5408
-0.5083515 0.32390329 1.539
-0.49830997 0.32419094 1.5086
-0.48450288 0.32170883 1.4668
-0.49101007 0.3326174 1.4865
-0.49084488 0.33909109 1.4859999
-0.46448594 0.32711348 1.4062001
-0.45474172 0.32635233 1.3767
-0.45830908 0.33506158 1.3875
-0.45365167 0.33774319 1.3734
-0.44797027 0.33952376 1.3562
-0.43076101 0.33226004 1.3041
-0.42742485 0.33542144 1.294
-0.4206534 0.33575141 1.2735
-0.42247015 0.3428697 1.279
-0.41193315 0.33984491 1.2471
-0.41378289 0.34692261 1.2527
-0.40529385 0.34524304 1.227
-0.40866306 0.353596 1.2372
-0.38035524 0.33420581 1.1515
-0.38910854 0.34711766 1.178
-0.38534296 0.34892854 1.1666
-0.3746078 0.3442339 1.1341
-0.38154435 0.35572717 1.1551
-0.37440962 0.35409859 1.1335
-0.78623807 -0.77544469 2.4131
-0.82005829 -0.79764634 2.5169001
-0.82494551 -0.79117924 2.5318999
-0.81272727 -0.76840651 2.4944
-0.85172802 -0.79369533 2.6141
-0.86909425 -0.79805702 2.6673999
-0.82794315 -0.74900794 2.5411
-0.85883093 -0.76526922 2.6359
-0.83983558 -0.73691994 2.5776
-0.83778292 -0.72372341 2.5713
-0.85707152 -0.72872823 2.6305001
-0.84850234 -0.70990109 2.6041999
-0.85166281 -0.70096117 2.6138999
-0.85159767 -0.6893242 2.6136999
-0.83957493 -0.66817266 2.5768001
-0.84967536 -0.6646539 2.6078
-0.83784807 -0.64400584 2.5715001
-0.83879292 -0.63332295 2.5743999
-0.83771771 -0.62111664 2.5711
-0.85935223 -0.62546849 2.6375
-0.86469567 -0.61759621 2.6538999
-0.87684882 -0.61434966 2.6912
-0.84840465 -0.58288085 2.6039
-0.85837477 -0.57805514 2.6345
-0.85941744 -0.56706768 2.6377001
-0.84729689 -0.54754537 2.6005001
-0.8624149 -0.54558462 2.6468999
-0.88333267 -0.54680276 2.7111001
-0.88189906 -0.53391987 2.7067001
-0.87717462 -0.51912838 2.6921999
-0.85365033 -0.49359509 2.6199999
-0.85967803 -0.48538721 2.6385
-0.88782895 -0.48920554 2.7249
-0.88255066 -0.47429278 2.7086999
-0.8693549 -0.45537645 2.6682
-0.89281404 -0.45552063 2.7402
-0.89138043 -0.44266477 2.7358
-0.87789148 -0.42402515 2.6944001
-0.87375349 -0.41014183 2.6817
-0.89252079 -0.40681133 2.7393
-0.89522511 -0.39586723 2.7476001
-0.88378882 -0.37878898 2.7125001
-0.88971871 -0.36922869 2.7307
-0.91353625 -0.36668709 2.8038001
-0.87883627 -0.34080496 2.6973
-0.89131522 -0.33352065 2.7356
-0.88274616 -0.31830722 2.7093
-0.88672113 -0.30767953 2.7214999
-0.88111705 -0.29375017 2.7042999
-0.89014232 -0.28465149 2.7320001
-0.88704699 -0.27159619 2.7225001
-0.9074108 -0.26548871 2.7850001
-0.89548576 -0.24981944 2.7484
-0.90379417 -0.23984404 2.7739
-0.87733752 -0.2208897 2.6926999
-0.88189906 -0.21004273 2.7067001
-0.89499706 -0.20098868 2.7469001
-0.88994682 -0.18774964 2.7314
-0.88414717 -0.17450008 2.7135999
-0.88769859 -0.16312668 2.7244999
-0.88059568 -0.14984369 2.7026999
-0.88584149 -0.13868725 2.7188001
-0.88734025 -0.12685244 2.7234001
-0.90242577 -0.11673439 2.7697001
-0.89089167 -0.10312461 2.7342999
-0.8931073 -0.091233179 2.7411001
-0.89577901 -0.079321854 2.7493
-0.8951925 -0.067093655 2.7474999
-0.88730764 -0.054433677 2.7233
-0.88763344 -0.042380217 2.7242999
-0.85250998 -0.029107537 2.6164999
-0.91086447 -0.018710522 2.7955999
-0.85169548 -0.0059104757 2.6140001
-0.89043552 0.0059322426 2.7328999
-0.95006073 0.019252051 2.9159
-1.0063299 0.03408023 3.0885999
-0.8297677 0.039387167 2.5467
-1.0078614 0.06154963 3.0933001
-0.88913226 0.066392735 2.7289
-0.91018027 0.080344543 2.7934999
-0.91855389 0.093577735 2.8192
-0.79203767 0.091462061 2.4309001
-0.82452202 0.10642827 2.5306001
-0.77242321 0.11020979 2.3706999
-0.78477192 0.12264605 2.4086001
-0.79356903 0.13481489 2.4356
-0.76424509 0.14022836 2.3455999
-0.81044656 0.15972924 2.4874001
-0.76564616 0.16131383 2.3499
-0.75258076 0.16879755 2.3097999
-0.76411486 0.18177792 2.3452001
-0.74756312 0.18800861 2.2944
-0.72309399 0.19169015 2.2193
-0.74055803 0.20639277 2.2729001
-0.71661013 0.20946573 2.1993999
-0.70690072 0.21624281 2.1696
-0.6859504 0.21916424 2.1052999
-0.67132109 0.22362131 2.0604
-0.68653691 0.23802796 2.1071
-0.67679483 0.24385597 2.0771999
-0.64981693 0.24297425 1.9944
-0.65525812 0.25392151 2.0111001
-0.64496219 0.25870436 1.9795001
-0.6403681 0.26557177 1.9654
-0.62384897 0.26720652 1.9147
-0.60895896 0.26911178 1.869
-0.60136735 0.2739366 1.8457
-0.5947206 0.27899817 1.8253
-0.58224165 0.28106353 1.7869999
-0.58774805 0.29171607 1.8039
-0.55060452 0.28076988 1.6899
-0.57197833 0.299449 1.7555
-0.55448174 0.29783097 1.7018
-0.55275488 0.3044219 1.6964999
-0.5361706 0.30258125 1.6456
-0.54056925 0.31241629 1.6591001
-0.51974922 0.30745316 1.5951999
-0.51893473 0.31402978 1.5927
-0.51662141 0.31965688 1.5856
-0.50919271 0.32198638 1.5628
-0.49247807 0.31811556 1.5115
-0.49580145 0.3270061 1.5217
-0.4953779 0.33346477 1.5204
-0.49228257 0.33807713 1.5109
-0.48863336 0.34221733 1.4997
-0.45777816 0.32683432 1.405
-0.45204371 0.3288888 1.3874
-0.46344742 0.34348941 1.4224
-0.44591829 0.33656278 1.3686
-0.43291801 0.33263916 1.3286999
-0.42835656 0.3349607 1.3147
-0.42213339 0.3358362 1.2956001
-0.41819093 0.33838785 1.2835
-0.40085724 0.32981434 1.2302999
-0.40128085 0.33562103 1.2316
-0.39626318 0.33681431 1.2162
-0.39948881 0.34498978 1.2261
-0.39623061 0.34756553 1.2161
-0.38397977 0.34204218 1.1785001
-0.39000744 0.35271636 1.197
-0.37873405 0.34767234 1.1624
-0.3717289 0.34629792 1.1409
-0.36504954 0.34504089 1.1204
-0.35296163 0.33841643 1.0833
-0.82668221 -0.8267318 2.5727
-0.83747894 -0.82597864 2.6063001
-0.84258801 -0.81939662 2.6222
-0.83420134 -0.79973549 2.5961001
-0.83622569 -0.79014301 2.6024001
-0.81174046 -0.75581157 2.5262001
-0.82899582 -0.76044452 2.5799
-0.84798628 -0.76616925 2.6389999
-0.81932378 -0.72897208 2.5497999
-0.8175565 -0.716124 2.5443001
-0.8214767 -0.70822799 2.5565
-0.85627657 -0.72642058 2.6647999
-0.85788327 -0.71595168 2.6698
-0.84120625 -0.69043189 2.6178999
-0.84686166 -0.68339372 2.6355
-0.86318517 -0.68466133 2.6863
-0.85695136 -0.6678977 2.6668999
-0.86337793 -0.66099882 2.6868999
-0.84377694 -0.63435501 2.6259
-0.8941291 -0.65987813 2.7825999
-0.86761945 -0.62834752 2.7000999
-0.85746551 -0.60916764 2.6684999
-0.8663342 -0.60351974 2.6961
-0.88812029 -0.60644782 2.7639
-0.86665547 -0.5798378 2.6970999
-0.88661003 -0.58096027 2.7592001
-0.87626326 -0.56209505 2.727
-0.88477844 -0.55535442 2.7535
-0.88632083 -0.54409844 2.7583001
-0.87125051 -0.52283072 2.7114
-0.89004827 -0.52183557 2.7699001
-0.87970144 -0.50363636 2.7377
-0.87976575 -0.49153945 2.7379
-0.88561386 -0.48259252 2.7560999
-0.87423885 -0.46433651 2.7207
-0.88484269 -0.4577648 2.7537
-0.88214356 -0.44420192 2.7453001
-0.8938399 -0.43776375 2.7816999
-0.88159728 -0.41960886 2.7435999
-0.90980995 -0.42048901 2.8313999
-0.9079141 -0.40709087 2.8255
-0.87552416 -0.38049263 2.7247
-0.89236182 -0.37550265 2.7771001
-0.89988089 -0.36625546 2.8004999
-0.89287597 -0.35108989 2.7787001
-0.91668636 -0.34780952 2.8527999
-0.89210474 -0.32617885 2.7763
-0.9050864 -0.31844237 2.8167
-0.87976575 -0.29739991 2.7379
-0.89467537 -0.29010069 2.7843001
-0.88304329 -0.27415001 2.7481
-0.89361495 -0.26510739 2.7809999
-0.89024103 -0.25182825 2.7704999
-0.88731694 -0.23876323 2.7614
-0.90373683 -0.23071724 2.8125
-0.90274078 -0.21801235 2.8094001
-0.89647484 -0.20413496 2.7899001
-0.89506096 -0.19146834 2.7855
-0.89766377 -0.17964454 2.7936001
-0.8949967 -0.16676702 2.7853
-0.87648815 -0.15122975 2.7277
-0.87134689 -0.13832508 2.7117
-0.88914853 -0.12888794 2.7671001
-0.90588975 -0.11882065 2.8192
-0.88551754 -0.10393549 2.7558
-0.88535684 -0.091705799 2.7553
-0.88095462 -0.0790997 2.7416
-0.88281834 -0.067091219 2.7474
-0.89480388 -0.055660948 2.7846999
-0.91411573 -0.044254761 2.8448
-0.87378901 -0.030251147 2.7193
-0.95196825 -0.019828226 2.9626
-0.92317718 -0.0064960965 2.8729999
-0.95637047 0.0064605856 2.9763
-1.094574 0.022490546 3.4064
-0.70798343 0.024311654 2.2033
-1.0514195 0.050606173 3.2721
-1.0321718 0.063915469 3.2121999
-1.0191259 0.077163398 3.1716001
-0.91787529 0.082156502 2.8564999
-0.857337 0.088562272 2.6681001
-0.85258132 0.099829808 2.6533
-0.84695804 0.11085261 2.6357999
-0.86328155 0.12489545 2.6866
-0.8725037 0.13826323 2.7153001
-0.76344478 0.13151039 2.3759
-0.75984591 0.14137024 2.3647001
-0.82440078 0.16475087 2.5655999
-0.79856592 0.17060177 2.4851999
-0.75274456 0.17119455 2.3426001
-0.73664594 0.17769311 2.2925
-0.72964096 0.18606658 2.2707
-0.74728191 0.20087172 2.3255999
-0.71566319 0.20224293 2.2272
-0.69982171 0.20741813 2.1779001
-0.71424931 0.22154522 2.2228
-0.69757241 0.22599331 2.1709001
-0.67389041 0.22761531 2.0971999
-0.67408323 0.2369774 2.0978
-0.66756034 0.24389121 2.0775001
-0.66826719 0.2533662 2.0797
-0.63494539 0.24948977 1.976
-0.63992602 0.26027265 1.9915
-0.62276703 0.2618829 1.9381
-0.60554385 0.26299194 1.8845
-0.61270946 0.27455452 1.9068
-0.60326242 0.27864149 1.8774
-0.5879029 0.2796554 1.8296
-0.5813157 0.28453949 1.8091
-0.57067972 0.28720424 1.776
-0.56335342 0.29128695 1.7532001
-0.55030745 0.29213125 1.7126
-0.5415352 0.2949433 1.6853
-0.54057121 0.30187383 1.6823
-0.53636175 0.30692065 1.6691999
-0.53915733 0.31595638 1.6779
-0.53327703 0.31986538 1.6596
-0.51335466 0.31499591 1.5976
-0.50814915 0.31881016 1.5814
-0.49034753 0.3144044 1.526
-0.48430654 0.31721056 1.5072
-0.49902338 0.33373231 1.553
-0.48353535 0.33004326 1.5048
-0.47347778 0.32970855 1.4735
-0.46997529 0.33375147 1.4626
-0.44928172 0.3252525 1.3982
-0.44712883 0.32986072 1.3915
-0.44044518 0.33100459 1.3707
-0.43575376 0.33348882 1.3561
-0.42110121 0.3280828 1.3105
-0.43845296 0.34764883 1.3645
-0.41833779 0.33746922 1.3019
-0.42444301 0.34824815 1.3209
-0.40092176 0.33447888 1.2477
-0.40522757 0.34366003 1.2611001
-0.40336388 0.34764266 1.2553
-0.39301705 0.34414566 1.2230999
-0.38395563 0.34150651 1.1949
-0.38279885 0.34575719 1.1913
-0.37116674 0.34036979 1.1551
-0.37675786 0.35069326 1.1725
-0.36679667 0.34648004 1.1415
-0.36014515 0.34516409 1.1208
-0.3494449 0.33972847 1.0875
-0.83175933 -0.8436026 2.6252
-0.83692378 -0.83713406 2.6415
-0.83289993 -0.821459 2.6287999
-0.83781093 -0.8145836 2.6443
-0.81689972 -0.78282571 2.5783
-0.84056741 -0.7937488 2.6530001
-0.8370505 -0.77871948 2.6419001
-0.82973152 -0.76030463 2.6187999
-0.84804475 -0.76522344 2.6766
-0.83001673 -0.73734617 2.6197
-0.85045272 -0.74360478 2.6842
-0.87909472 -0.75635195 2.7746
-0.85450822 -0.72324586 2.697
-0.86407667 -0.71925819 2.7272
-0.87202924 -0.71368039 2.7523
-0.86036968 -0.69210362 2.7155001
-0.86550242 -0.6841262 2.7316999
-0.85187846 -0.66144162 2.6887
-0.84886849 -0.64723098 2.6791999
-0.85767657 -0.64195007 2.707
-0.86781538 -0.63740009 2.7390001
-0.87960166 -0.63375354 2.7762001
-0.86873412 -0.61377203 2.7419
-0.88463932 -0.61263531 2.7921
-0.85124481 -0.57760197 2.6867001
-0.87345499 -0.58045495 2.7567999
-0.87808084 -0.57124686 2.7714
-0.87808084 -0.55896467 2.7714
-0.88213634 -0.54920739 2.7842
-0.87551445 -0.5328384 2.7632999
-0.87297976 -0.51908499 2.7553
-0.87304318 -0.50691092 2.7555001
-0.88020366 -0.49875662 2.7781
-0.88242149 -0.48767042 2.7851
-0.89338404 -0.48123264 2.8197
-0.90773672 -0.47626692 2.865
-0.85374784 -0.43599844 2.6946001
-0.87424713 -0.43423861 2.7593
-0.89734453 -0.43315947 2.8322001
-0.90190697 -0.42274636 2.8466001
-0.88609678 -0.40294144 2.7967
-0.90494859 -0.39885604 2.8562
-0.8752293 -0.37351498 2.7623999
-0.8898989 -0.3673279 2.8087001
-0.89300388 -0.35611865 2.8185
-0.88799781 -0.34170142 2.8027
-0.89107114 -0.33042014 2.8124001
-0.91271108 -0.32567793 2.8807001
-0.90881401 -0.31157526 2.8684001
-0.88777608 -0.29194489 2.802
-0.91651309 -0.28857529 2.8927
-0.91172886 -0.27431607 2.8776
-0.88736415 -0.25457332 2.8006999
-0.88780773 -0.24228233 2.8020999
-0.90485352 -0.23427747 2.8559
-0.88907504 -0.21775626 2.8060999
-0.92449743 -0.21350063 2.9179001
-0.88926518 -0.19292557 2.8067
-0.87288475 -0.17716235 2.7550001
-0.90520209 -0.17105998 2.8570001
-0.8850829 -0.15487786 2.7934999
