# .PCD v0.7 - Point Cloud Data file format
VERSION 0.7
FIELDS x y z
SIZE 4 4 4
TYPE F F F
COUNT 1 1 1
WIDTH 1558
HEIGHT 1
VIEWPOINT 0 0 0 1 0 0 0
POINTS 1558
DATA ascii
0.4591873 0.28836146 1.6905
0.46008366 0.29643089 1.6938
0.45454246 0.30027682 1.6734
0.44530711 0.30144125 1.6394
0.44365016 0.307558 1.6332999
0.41800848 0.2966021 1.5389
0.42925388 0.31158489 1.5803
0.42751545 0.31729817 1.5739
0.42219153 0.32023507 1.5543
0.4182258 0.32405064 1.5397
0.40741497 0.32232136 1.4999
0.39323601 0.31751969 1.4477
0.38747746 0.31919187 1.4265
0.39299154 0.33014604 1.4468
0.38660827 0.33109131 1.4233
0.39888588 0.34811386 1.4685
0.37210333 0.33081141 1.3699
0.37289104 0.33759564 1.3728
0.37813348 0.34851131 1.3921
0.35222015 0.33037466 1.2967
0.36354706 0.3469305 1.3384
0.35368693 0.34329164 1.3020999
0.34711355 0.34257481 1.2779
0.34673327 0.34785664 1.2765
0.33404824 0.3405807 1.2298
0.33247277 0.34439892 1.224
0.32576358 0.34276408 1.1993001
0.31834814 0.34015566 1.1720001
0.3089498 0.33515421 1.1374
0.30577174 0.33669543 1.1257
0.30672243 0.34274662 1.1292
0.29534122 0.33484733 1.0872999
0.29688951 0.34144667 1.0930001
0.56966358 -0.66297293 2.0631001
0.58449125 -0.67084819 2.1168001
0.58043224 -0.65687346 2.1020999
0.58794278 -0.65593654 2.1293001
0.58156437 -0.63948631 2.1062
0.58330387 -0.63203698 2.1125
0.59233302 -0.63231349 2.1452
0.59026217 -0.62062907 2.1377001
0.59357554 -0.61458594 2.1496999
0.59067631 -0.60210365 2.1392
0.59953976 -0.60151589 2.1712999
0.60323977 -0.59554607 2.1847
0.58857781 -0.57162428 2.1315999
0.60315698 -0.57610279 2.1844001
0.60199726 -0.56533301 2.1802001
0.60553163 -0.5589332 2.1930001
0.60624951 -0.54986548 2.1956
0.60486889 -0.53890508 2.1905999
0.59664053 -0.52199787 2.1608
0.60553163 -0.5200578 2.1930001
0.61580324 -0.51899588 2.2302001
0.61179948 -0.50580204 2.2156999
0.6088174 -0.49356505 2.2049
0.61221373 -0.48649228 2.2172
0.60818231 -0.4735274 2.2026
0.610695 -0.46568203 2.2117
0.60931444 -0.45484972 2.2067001
0.62571597 -0.4570505 2.2660999
0.61362195 -0.43836781 2.2223001
0.62165701 -0.43413034 2.2514
0.62563312 -0.42686558 2.2658
0.61351144 -0.40874809 2.2219
0.62430775 -0.40592083 2.2609999
0.61508536 -0.39005232 2.2276001
0.61047417 -0.37732995 2.2109001
0.61790174 -0.3720035 2.2377999
0.62201601 -0.36449704 2.2527001
0.61768085 -0.35204282 2.237
0.62530178 -0.34635016 2.2646
0.62720704 -0.33733872 2.2715001
0.631266 -0.3293899 2.2862
0.62936074 -0.31829444 2.2793
0.63002342 -0.30851763 2.2816999
0.63405478 -0.30031511 2.2962999
0.64090258 -0.29327193 2.3211
0.65034586 -0.287155 2.3552999
0.62044209 -0.26399302 2.247
0.62433541 -0.25562894 2.2611001
0.62947124 -0.24762869 2.2797
0.62063533 -0.23419146 2.2477
0.63789284 -0.23046519 2.3102
0.62463915 -0.2156512 2.2622001
0.62853241 -0.20690729 2.2763
0.6269033 -0.19630913 2.2704
0.63029957 -0.18725626 2.2827001
0.61947566 -0.17409793 2.2435
0.62433541 -0.16544305 2.2611001
0.63877648 -0.15901735 2.3134
0.62764877 -0.14617339 2.2730999
0.62204355 -0.13488412 2.2528
0.62822866 -0.12614214 2.2751999
0.63990855 -0.11821675 2.3175001
0.62952644 -0.10619479 2.2799001
0.62463915 -0.095344812 2.2622001
0.61881298 -0.084523492 2.2411001
0.63822418 -0.07693129 2.3113999
0.62220925 -0.065014325 2.2534001
0.62082863 -0.054905687 2.2484
0.62284434 -0.045087229 2.2557001
0.63010633 -0.035499636 2.2820001
0.62353462 -0.02512159 2.2581999
0.62146372 -0.015063589 2.2507
0.62715185 -0.0051356023 2.2713001
0.6222921 0.0048920545 2.2537
0.62717938 0.014996779 2.2714
0.62331372 0.024908604 2.2574
0.62220925 0.034851 2.2534001
0.6249705 0.04503651 2.2634001
0.60042334 0.052904464 2.1745
0.64907569 0.067609064 2.3506999
0.65733171 0.079019278 2.3806
0.63659513 0.086743914 2.3055
0.5960331 0.090783238 2.1586001
0.60566968 0.10197207 2.1935
0.56328517 0.10387691 2.04
0.62085629 0.12445857 2.2485001
0.57996285 0.12556943 2.1004
0.60470325 0.1406316 2.1900001
0.56223595 0.13977924 2.0362
0.57314271 0.1516898 2.0757
0.58219945 0.16343115 2.1085
0.59854573 0.17762652 2.1677001
0.58377337 0.18261224 2.1142001
0.59882188 0.19693078 2.1687
0.59056586 0.20369433 2.1387999
0.55906051 0.2018007 2.0246999
0.53420973 0.20140459 1.9347
0.53663963 0.2109338 1.9435
0.56038594 0.2292619 2.0295
0.53208363 0.22622302 1.927
0.54362541 0.23985544 1.9687999
0.53487247 0.24457826 1.9371001
0.53556275 0.25348976 1.9396
0.51363879 0.25135678 1.8602
0.51212013 0.2588332 1.8547
0.50483054 0.26325151 1.8283
0.49955666 0.26851931 1.8092
0.49466932 0.27383181 1.7915
0.49102455 0.27969518 1.7783
0.47973123 0.28096208 1.7374001
0.4698461 0.2827138 1.7016
0.47451255 0.29313764 1.7185
0.45833188 0.29049808 1.6599
0.46598044 0.30282488 1.6876
0.4656215 0.31006488 1.6863
0.45435578 0.30985531 1.6454999
0.4385893 0.30614254 1.5884
0.44021845 0.31434527 1.5943
0.43444753 0.31719738 1.5734
0.42188403 0.31479585 1.5279
0.4178803 0.31851542 1.5134
0.42044821 0.32722098 1.5227
0.4010922 0.3185944 1.4526
0.39424443 0.31948277 1.4278001
0.40123025 0.33158365 1.4531
0.40865788 0.34428099 1.48
0.37690407 0.32357877 1.365
0.37381154 0.32692349 1.3538001
0.38612646 0.34389111 1.3983999
0.37378392 0.33889791 1.3537
0.35859728 0.33088419 1.2987
0.36348465 0.34122783 1.3164001
0.35688534 0.34076068 1.2925
0.35177714 0.34152931 1.274
0.33590022 0.33150616 1.2165
0.34349352 0.34451324 1.244
0.33068153 0.33697072 1.1976
0.32932857 0.34087774 1.1927
0.32206658 0.3385303 1.1664
0.31527406 0.33645073 1.1418
0.32502106 0.35206908 1.1770999
0.31138074 0.3422913 1.1277
0.31278896 0.34885961 1.1328
0.30144042 0.34104052 1.0917
0.5998649 -0.6869455 2.1377001
0.5876863 -0.66371757 2.0943
0.58956647 -0.65652978 2.1010001
0.59585214 -0.65411896 2.1234
0.59517866 -0.64397991 2.1210001
0.61754346 -0.65842551 2.2007
0.61852562 -0.64970416 2.2042
0.60578579 -0.62675488 2.1587999
0.61167866 -0.62319142 2.1798
0.62239802 -0.62428284 2.2179999
0.60387766 -0.59616923 2.152
0.60923731 -0.59183866 2.1710999
0.62517613 -0.59744877 2.2279
0.60006136 -0.56397098 2.1384001
0.61187512 -0.56541079 2.1805
0.6222297 -0.56515211 2.2174001
0.61717868 -0.55081713 2.1993999
0.62433428 -0.54734313 2.2249
0.62357658 -0.53683066 2.2221999
0.62040573 -0.52430272 2.2109001
0.63381892 -0.52562815 2.2586999
0.62817866 -0.51102972 2.2386
0.63423991 -0.50594389 2.2602
0.61619651 -0.48181868 2.1959
0.64192867 -0.49180117 2.2876
0.63499761 -0.47646242 2.2629001
0.63224751 -0.46441373 2.2530999
0.62458682 -0.44892243 2.2258
0.63466078 -0.44613975 2.2616999
0.63567102 -0.43681064 2.2653
0.63432407 -0.42586705 2.2605
0.64136744 -0.42046654 2.2855999
0.63216335 -0.40444869 2.2528
0.63123739 -0.39388698 2.2495
0.63943124 -0.38890126 2.2787001
0.6445384 -0.3818281 2.2969
0.63275266 -0.36485296 2.2549
0.63597971 -0.3566696 2.2664001
0.65256387 -0.35566425 2.3255
0.63973987 -0.33857131 2.2797999
0.63446438 -0.32575911 2.2609999
0.64417356 -0.32057065 2.2955999
0.65189046 -0.31411549 2.3231001
0.64784962 -0.30193681 2.3087001
0.64321953 -0.28962043 2.2922001
0.64616591 -0.28074208 2.3027
0.64526796 -0.27016109 2.2995
0.65009451 -0.26191482 2.3167
0.64380878 -0.2492146 2.2943001
0.64925265 -0.24106811 2.3137
0.65110475 -0.23147278 2.3203001
0.64111489 -0.21779606 2.2846999
0.64829862 -0.20999777 2.3103001
0.64389294 -0.19840157 2.2946
0.65668887 -0.19197315 2.3401999
0.65371442 -0.18077938 2.3296001
0.65957922 -0.17198439 2.3505001
0.6531812 -0.16000029 2.3276999
0.64813024 -0.148527 2.3097
0.64807409 -0.13827898 2.3095
0.65811998 -0.13002865 2.3453
0.64675522 -0.11756892 2.3048
0.64947718 -0.10780641 2.3145001
0.64852309 -0.097405791 2.3111
0.65211493 -0.087646306 2.3239
0.65340573 -0.07750044 2.3285
0.65057153 -0.066889673 2.3183999
0.64240569 -0.055904463 2.2893
0.67010218 -0.04773166 2.388
0.64843893 -0.035947662 2.3108001
0.64296699 -0.025489816 2.2913001
0.65256387 -0.015564214 2.3255
0.63940316 -0.0051521077 2.2786
0.65486491 0.0050657084 2.3336999
0.64369655 0.015145334 2.2939
0.65379858 0.025708584 2.3299
0.65525776 0.036114566 2.3350999
0.64010471 0.045388699 2.2811
0.62385726 0.054089315 2.2232001
0.62304348 0.063858598 2.2203
0.66561234 0.078733817 2.372
0.59885466 0.080295019 2.1341
0.65371442 0.097974904 2.3296001
0.65144145 0.10792258 2.3215001
0.61574751 0.11173388 2.1942999
0.6258496 0.12345116 2.2302999
0.59588021 0.12695044 2.1235001
0.71258688 0.16306844 2.5394001
0.63095677 0.15435302 2.2485001
0.64476281 0.1679133 2.2976999
0.61846948 0.17083342 2.204
0.59520674 0.17380799 2.1210999
0.58810723 0.18102294 2.0957999
0.60432661 0.19555961 2.1536
0.57612514 0.19553247 2.0531001
0.55681896 0.19777407 1.9843
0.57410473 0.21298064 2.0459001
0.57399243 0.22200418 2.0455
0.56981134 0.22938617 2.0306001
0.55639803 0.23277375 1.9828
0.55760467 0.24208491 1.9871
0.55322713 0.2489216 1.9715
0.54508936 0.25386876 1.9425
0.51711231 0.24900565 1.8428
0.52028322 0.25874946 1.8541
0.51739293 0.26548332 1.8437999
0.50016338 0.26454169 1.7824
0.5090307 0.27727094 1.814
0.50397968 0.28247908 1.796
0.48851794 0.28152809 1.7409
0.478921 0.28356114 1.7067
0.47838783 0.29080072 1.7048
0.4745715 0.29597586 1.6912
0.47367352 0.30289665 1.688
0.46084955 0.30197448 1.6423
0.46152306 0.30970469 1.6447001
0.44698733 0.30700988 1.5929
0.4517858 0.31744081 1.61
0.44056132 0.31651193 1.5700001
0.43169397 0.3169592 1.5384001
0.4151659 0.31138071 1.4795001
0.41945925 0.3212254 1.4948
0.41031131 0.32069996 1.4622
0.40520415 0.32310766 1.444
0.40610209 0.33023733 1.4471999
0.39779601 0.32976535 1.4176
0.397347 0.33566853 1.416
0.39549497 0.34035009 1.4094
0.38797453 0.34000564 1.3825999
0.37503833 0.3345919 1.3365
0.36667609 0.33292246 1.3067
0.35825771 0.33093706 1.2767
0.36378577 0.34178886 1.2964
0.3566021 0.34067145 1.2708
0.3498674 0.33976313 1.2467999
0.33535972 0.33097085 1.1950999
0.33858678 0.33950305 1.2066
0.33934444 0.34562209 1.2093
0.32130107 0.33231929 1.145
0.3338725 0.35059476 1.1898
0.3169516 0.337832 1.1295
0.31580105 0.34159318 1.1253999
0.30676535 0.33666432 1.0932
0.30294901 0.33726054 1.0796
0.60641706 -0.68350708 2.1270001
0.59421456 -0.66051662 2.0841999
0.62831306 -0.68865311 2.2038
0.62586117 -0.67623717 2.1952
0.62272501 -0.66316873 2.1842
0.62996662 -0.66108829 2.2096
0.6315062 -0.65288752 2.2149999
0.63652402 -0.6481809 2.2326
0.63230449 -0.63405532 2.2177999
0.63720828 -0.62906772 2.2349999
0.63073647 -0.61287415 2.2123001
0.63769299 -0.60972118 2.2367001
0.65545499 -0.61651546 2.299
0.6196174 -0.57317537 2.1733
0.62905431 -0.57212669 2.2063999
0.6293965 -0.56265438 2.2076001
0.64379424 -0.56551796 2.2581
0.63512707 -0.54803199 2.2277
0.64644569 -0.54774994 2.2674
0.64573294 -0.53710848 2.2649
0.63586831 -0.51901913 2.2302999
0.63971722 -0.51221675 2.2437999
0.63966018 -0.50222796 2.2435999
0.66931105 -0.51510429 2.3476
0.63786399 -0.48098737 2.2372999
0.64310998 -0.47494641 2.2557001
0.66275364 -0.47915149 2.3246
0.64832735 -0.45864388 2.2739999
0.66098601 -0.45732433 2.3183999
0.66828471 -0.45198613 2.3440001
0.64972436 -0.42933354 2.2788999
0.64382273 -0.41542596 2.2581999
0.6715349 -0.42286864 2.3554001
0.64955336 -0.39892986 2.2783
0.65593964 -0.39265594 2.3006999
0.66178429 -0.3858676 2.3211999
0.65901881 -0.37401113 2.3115001
0.65451413 -0.36128062 2.2957001
0.67190552 -0.36043599 2.3566999
0.65488476 -0.34112567 2.2969999
0.66281068 -0.33495128 2.3248
0.67435741 -0.33030397 2.3652999
0.66543365 -0.31558934 2.3340001
0.68564755 -0.31451806 2.4049001
0.66808516 -0.29607692 2.3433001
0.67239022 -0.28753296 2.3584001
0.67669529 -0.27885514 2.3735001
0.67444295 -0.26744321 2.3656001
0.6593039 -0.25119153 2.3125
0.6697672 -0.24476692 2.3492
0.66092902 -0.23126328 2.3182001
0.67381573 -0.22529839 2.3634
0.67934674 -0.21658775 2.3828001
0.66560471 -0.20186016 2.3346
0.66323829 -0.19083288 2.3262999
0.67903316 -0.18482238 2.3817
0.6754123 -0.173338 2.369
0.67826331 -0.16352654 2.3789999
0.68017352 -0.15341422 2.3857
0.68436456 -0.14372152 2.4003999
0.65896177 -0.12814362 2.3113
0.67518425 -0.12080298 2.3682001
0.68949646 -0.11264594 2.4184
0.66985273 -0.099024236 2.3494999
0.68858409 -0.091089696 2.4152
0.66406512 -0.077523738 2.3292
0.66101456 -0.066892564 2.3185
0.68051565 -0.058287844 2.3868999
0.66586131 -0.046682283 2.3355
0.67370164 -0.036759701 2.3629999
0.65876222 -0.02570452 2.3106
0.68447858 -0.016068187 2.4008
0.65605372 -0.0052029826 2.3011
0.65938944 0.0050203414 2.3127999
0.67427188 0.015614768 2.365
0.66323829 0.025668859 2.3262999
0.64912564 0.0352129 2.2767999
0.68693048 0.047941577 2.4094
0.6826539 0.058254518 2.3943999
0.71025205 0.071650021 2.4912
0.65451413 0.076201193 2.2957001
0.67937523 0.089656062 2.3829
0.5945282 0.087700486 2.0853
0.73565489 0.11995375 2.5803001
0.59698009 0.1066215 2.0939
0.67606801 0.13125576 2.3713
0.62779981 0.13164343 2.2019999
0.61505568 0.13853176 2.1573
0.63903296 0.15386562 2.2414
0.63042283 0.16159199 2.2112
0.61936074 0.16838409 2.1724
0.60020179 0.17250513 2.1052001
0.6191327 0.18757011 2.1716001
0.59293157 0.18884905 2.0797
0.57850528 0.19324675 2.0290999
0.57964569 0.20263791 2.0330999
0.58748609 0.21451093 2.0606
0.57847679 0.22021338 2.029
0.56926793 0.22555666 1.9967
0.58224022 0.23974711 2.0422001
0.56191224 0.24011129 1.9709001
0.55144894 0.24421211 1.9342
0.54503405 0.24984345 1.9117
0.54740041 0.25943717 1.92
0.54104257 0.26483408 1.8977
0.52473462 0.26500818 1.8405
0.52752864 0.27461931 1.8503
0.51276022 0.27490175 1.7984999
0.51649511 0.28493267 1.8116
0.48809871 0.27685454 1.712
0.49853355 0.29052266 1.7486
0.48675871 0.29122716 1.7072999
0.4733018 0.29053307 1.6601
0.48191196 0.30330938 1.6903
0.46107081 0.29735926 1.6172
0.46360824 0.3062022 1.6260999
0.47261754 0.31949916 1.6576999
0.44755688 0.30951464 1.5698
0.44422114 0.31411287 1.5581
0.43489826 0.31428078 1.5254
0.44470584 0.32828093 1.5598
0.43073571 0.32466373 1.5108
0.43327317 0.33331126 1.5197001
0.40670139 0.31919187 1.4265
0.39660874 0.31743586 1.3911
0.39618108 0.32325193 1.3896
0.39273131 0.32654196 1.3775001
0.38731432 0.32805848 1.3585
0.37274548 0.32151264 1.3074
0.37773481 0.33168784 1.3249
0.37742117 0.3372792 1.3238
0.36045748 0.32772282 1.2643
0.35552517 0.32876483 1.247
0.35971621 0.33823198 1.2617
0.36949527 0.35317054 1.296
0.35244605 0.34235311 1.2362
0.35541114 0.35075793 1.2466
0.34680098 0.3476513 1.2164
0.32952365 0.33545384 1.1558
0.34146953 0.35292262 1.1977
0.32239604 0.33822083 1.1308
0.32037181 0.34107721 1.1237
0.31495482 0.34020588 1.1047
0.31344378 0.34344599 1.0994
0.62309575 -0.69141215 2.1515999
0.62830853 -0.6875813 2.1696
0.64472866 -0.69568402 2.2263
0.64553952 -0.68668014 2.2291
0.65182376 -0.68338984 2.2507999
0.6488409 -0.67033321 2.2405
0.64834863 -0.65990281 2.2388
0.66355246 -0.66522306 2.2913001
0.65521204 -0.64683479 2.2625
0.65558851 -0.63717383 2.2637999
0.66621667 -0.63730818 2.3004999
0.66326278 -0.62433243 2.2902999
0.67652637 -0.62646449 2.3361001
0.66085917 -0.60184336 2.2820001
0.67024207 -0.60013145 2.3144
0.67551279 -0.5945133 2.3326001
0.67087924 -0.58016872 2.3166001
0.66103292 -0.5615378 2.2825999
0.66543484 -0.55509382 2.2978001
0.65970081 -0.54021508 2.2780001
0.6685335 -0.53721726 2.3085001
0.66876513 -0.52716917 2.3092999
0.68341875 -0.52826166 2.3599
0.67432541 -0.51091343 2.3285
0.67739511 -0.50287288 2.3390999
0.68756002 -0.49989706 2.3742001
0.68866044 -0.49015841 2.378
0.66954708 -0.46630812 2.312
0.68353462 -0.46558949 2.3603001
0.67137152 -0.44703045 2.3183
0.68246311 -0.44397184 2.3566
0.67426747 -0.42832178 2.3283
0.69007945 -0.42780575 2.3829
0.68168116 -0.4121674 2.3539
0.69199079 -0.40781125 2.3894999
0.68779165 -0.39481112 2.375
0.68060964 -0.38027295 2.3501999
0.68428755 -0.37185606 2.3629
0.69300437 -0.36598775 2.3929999
0.67096609 -0.34408101 2.3169
0.70079452 -0.34865305 2.4198999
0.6786983 -0.32727367 2.3436
0.69769585 -0.32575741 2.4092
0.68556178 -0.30960065 2.3673
0.69592929 -0.30363268 2.4031
0.68854457 -0.28987378 2.3776
0.69332296 -0.28127536 2.3941
0.70316923 -0.27450916 2.4281001
0.68533003 -0.25705719 2.3664999
0.68767577 -0.24741338 2.3745999
0.70563078 -0.24307483 2.4366
0.70435655 -0.23185696 2.4322
0.69216454 -0.21725129 2.3901
0.70195287 -0.20958143 2.4238999
0.6979565 -0.19770724 2.4101
0.69161433 -0.1853268 2.3882
0.69584244 -0.17581113 2.4028001
0.69013739 -0.16380836 2.3831
0.69552386 -0.15444311 2.4017
0.71428972 -0.14767919 2.4665
0.68110198 -0.13039458 2.3519001
0.69251204 -0.12198132 2.3913
0.70742631 -0.11378246 2.4428
0.68451917 -0.099622719 2.3636999
0.69520533 -0.090539053 2.4006
0.68127573 -0.078299239 2.3525
0.71457934 -0.07119146 2.4675
0.70119995 -0.059127886 2.4212999
0.69323605 -0.047847591 2.3938
0.70270592 -0.037747532 2.4265001
0.69404691 -0.026661236 2.3966
0.67866933 -0.015684685 2.3434999
0.6996941 -0.0054630069 2.4161
0.6956687 0.0052144001 2.4022
0.69485778 0.015841892 2.3994
0.69303334 0.026405945 2.3931
0.71567976 0.038221031 2.4712999
0.65807903 0.045215584 2.2723999
0.69477093 0.058368869 2.3991001
0.63705432 0.063268989 2.1998
0.68451917 0.078458309 2.3636999
0.69537908 0.0903446 2.4012001
0.68802327 0.099917904 2.3757999
0.72268808 0.11601155 2.4955001
0.75425404 0.13262129 2.6045001
0.58043826 0.11094166 2.0043001
0.68379527 0.14116099 2.3612001
0.66349453 0.14712377 2.2911
0.64774048 0.15354298 2.2367001
0.6319285 0.15946539 2.1821001
0.65752882 0.17598787 2.2704999
0.61666673 0.17448813 2.1294
0.61313367 0.18287134 2.1171999
0.60658878 0.19020206 2.0946
0.6113382 0.20104674 2.1110001
0.61284405 0.21092045 2.1162
0.59448367 0.21369892 2.0527999
0.5939045 0.2225794 2.0508001
0.60902137 0.2375648 2.1029999
0.59680045 0.24193068 2.0608001
0.57331413 0.24118337 1.9797
0.5653792 0.24649741 1.9523
0.55729949 0.25150323 1.9244
0.54632378 0.25491053 1.8865
0.54209566 0.26123354 1.8719
0.54736632 0.27214992 1.8901
0.53618789 0.27479744 1.8515
0.52758688 0.27846318 1.8218
0.52359045 0.28436646 1.808
0.5305987 0.29629257 1.8322001
0.50013316 0.2869339 1.727
0.49668694 0.29255769 1.7151
0.50505626 0.30521637 1.744
0.47818172 0.29629323 1.6512001
0.4854506 0.30822617 1.6763
0.47143412 0.30654117 1.6279
0.46422318 0.3089565 1.603
0.46132722 0.31408894 1.5930001
0.44589171 0.31040347 1.5397
0.46100864 0.32798189 1.5919
0.44435683 0.32293516 1.5344
0.44183734 0.32786566 1.5257
0.42060992 0.31855053 1.4524
0.42304257 0.32686681 1.4608001
0.4216235 0.33222258 1.4559
0.41449946 0.33295229 1.4313
0.41073471 0.33621377 1.4183
0.40465316 0.33742812 1.3973
0.38829097 0.32972628 1.3408
0.38950729 0.33671987 1.345
0.38357052 0.33745754 1.3245
0.38516334 0.34475312 1.33
0.3769967 0.34321257 1.3018
0.3597078 0.33297768 1.2421
0.36468884 0.34316951 1.2593
0.37169707 0.35545236 1.2835
0.35490048 0.34482098 1.2255
0.3538 0.34916604 1.2217
0.33842245 0.33916882 1.1686
0.34693658 0.35301098 1.198
0.338741 0.34985578 1.1697
0.31151894 0.32650775 1.0757
0.32119146 0.3415609 1.1091
0.32400057 0.34950641 1.1188
0.64911234 -0.70927918 2.2072001
0.66122878 -0.71255428 2.2484
0.65902311 -0.70024633 2.2409
0.66737521 -0.69906384 2.2693
0.64490682 -0.66581023 2.1928999
0.6668753 -0.67844129 2.2676001
0.68113852 -0.68268746 2.3160999
0.70098954 -0.69202012 2.3836
0.67940342 -0.66047192 2.3102
0.6776095 -0.64851677 2.3041
0.69916618 -0.65861183 2.3773999
0.68584394 -0.63572705 2.3320999
0.69543129 -0.63413405 2.3647001
0.67907989 -0.60899055 2.3090999
0.67831528 -0.59808296 2.3065
0.68310893 -0.5920155 2.3227999
0.69125521 -0.58865863 2.3505001
0.6898436 -0.57706094 2.3457
0.69910735 -0.57427496 2.3771999
0.68243253 -0.55029368 2.3204999
0.69469607 -0.54971391 2.3622
0.70493037 -0.54718941 2.3970001
0.70025432 -0.53300726 2.3810999
0.69407845 -0.51784706 2.3601
0.71081209 -0.5196203 2.4170001
0.71451759 -0.51156169 2.4296
0.69240212 -0.48529392 2.3543999
0.69263744 -0.47502115 2.3552001
0.70828295 -0.47507763 2.4084001
0.6947549 -0.45553413 2.3624001
0.69943088 -0.44806001 2.3783
0.70854765 -0.44322282 2.4093001
0.69216686 -0.42254546 2.3536
0.70113659 -0.4174554 2.3841
0.7189877 -0.41724917 2.4447999
0.69463724 -0.39265007 2.362
0.70207769 -0.38627589 2.3873
0.72092879 -0.38578355 2.4514
0.73257464 -0.38097599 2.4909999
0.69460785 -0.35076395 2.3619001
0.7184878 -0.35199565 2.4431
0.71351767 -0.33880839 2.4261999
0.69866621 -0.32122776 2.3757
0.70146006 -0.31194165 2.3852
0.70543027 -0.30307674 2.3987
0.7081359 -0.29356793 2.4079001
0.71037096 -0.28378958 2.4154999
0.71895838 -0.27638587 2.4447
0.71637034 -0.26459566 2.4359
0.71789962 -0.25434211 2.4410999
0.71348828 -0.24202736 2.4261
0.72836924 -0.23609906 2.4767001
0.71437061 -0.22079626 2.4291
0.72981024 -0.21457045 2.4816
0.73025131 -0.20369563 2.4830999
0.72569299 -0.19148833 2.4676001
0.72107577 -0.17940374 2.4519
0.71951711 -0.16817319 2.4466
0.72389901 -0.1582886 2.4614999
0.70219535 -0.14296113 2.3877001
0.73680949 -0.13890494 2.5053999
0.71616453 -0.12422068 2.4352
0.72625178 -0.11502611 2.4695001
0.71489996 -0.10245501 2.4309001
0.7129001 -0.091425359 2.4240999
0.71025336 -0.080382787 2.4151001
0.71501756 -0.07014703 2.4312999
0.71219432 -0.059137657 2.4217
0.70907694 -0.048193384 2.4110999
0.70437157 -0.037259065 2.3951001
0.70513624 -0.026673473 2.3977001
0.71916419 -0.016366687 2.4454
0.71157676 -0.0054709208 2.4196
0.69616646 0.0051384261 2.3671999
0.71142972 0.01597196 2.4191
0.67278641 0.02524294 2.2876999
0.78595167 0.041332781 2.6724999
0.75330794 0.050968021 2.5615001
0.69946033 0.057865251 2.3784001
0.77745259 0.076033235 2.6436
0.7434265 0.08390861 2.5279
0.62732035 0.080257401 2.1331
0.7054891 0.10088941 2.3989
0.66399324 0.10496128 2.2578001
0.62352657 0.1079607 2.1201999
0.65843493 0.12392718 2.2388999
0.6729629 0.13680276 2.2883
0.67772716 0.14798427 2.3045001
0.65984654 0.15402351 2.2437
0.64808303 0.1610439 2.2037001
0.63970149 0.16860111 2.1752
0.64049554 0.17846233 2.1779001
0.63437849 0.18631768 2.1571
0.61393934 0.18956642 2.0876
0.60191113 0.19492294 2.0467
0.61017501 0.20679414 2.0748
0.62805557 0.22231853 2.1356001
0.59749973 0.2205064 2.0316999
0.60238165 0.23138563 2.0483
0.58235425 0.23246852 1.9802001
0.58314824 0.24157323 1.9829
0.56553233 0.24279799 1.923
0.57109064 0.25379035 1.9419
0.56797332 0.26096407 1.9313
0.5608269 0.26613194 1.9069999
0.55368054 0.27108443 1.8827
0.54744589 0.27628163 1.8615
0.54806346 0.28485233 1.8636
0.52877128 0.28279364 1.798
0.52888894 0.29082665 1.7984
0.52488929 0.29653713 1.7848001
0.50736165 0.29428053 1.7252001
0.49545103 0.29483831 1.6847
0.49186316 0.30011532 1.6725
0.49292189 0.30818939 1.6761
0.49812722 0.31895044 1.6938
0.48189354 0.31581792 1.6386
0.4597781 0.30825275 1.5634
0.46868899 0.32128987 1.5937001
0.4723945 0.33094874 1.6063
0.45201412 0.32348236 1.5369999
0.43319249 0.31654069 1.473
0.42734012 0.31870407 1.4531
0.42472273 0.32315242 1.4442
0.41845864 0.32469228 1.4229
0.40613633 0.32125139 1.381
0.40284252 0.32471663 1.3698
0.39510801 0.32443619 1.3435
0.39563736 0.3308329 1.3453
0.3867853 0.32925943 1.3152
0.39428458 0.34158501 1.3407
0.38931444 0.34314597 1.3238
0.38807929 0.34790543 1.3196
0.37719804 0.34383479 1.2826
0.36117017 0.33466724 1.2280999
0.36387581 0.34265774 1.2373
0.35593539 0.3405441 1.2103
0.35522962 0.34522197 1.2079
0.3469069 0.34236142 1.1796
0.34146625 0.34213781 1.1611
0.34090745 0.34671521 1.1592
0.33020267 0.34080401 1.1228
0.32723236 0.34266958 1.1127
0.32890865 0.34938145 1.1184
0.65899742 -0.70924699 2.2070999
0.68933326 -0.73166436 2.3087001
0.67691231 -0.70843345 2.2671001
0.69291615 -0.71489775 2.3206999
0.71286136 -0.72489488 2.3875
0.68333173 -0.68472421 2.2886
0.69667834 -0.68775737 2.3333001
0.68661606 -0.6676327 2.2995999
0.68643701 -0.65726995 2.299
0.69661862 -0.65667921 2.3331001
0.68506348 -0.63561833 2.2944
0.72546142 -0.66233265 2.4296999
0.69617069 -0.62525767 2.3316
0.70417273 -0.62199271 2.3584001
0.69249815 -0.60140204 2.3192999
0.70987558 -0.60595703 2.3775001
0.70814383 -0.59396797 2.3717
0.74233133 -0.61162508 2.4862001
0.6972456 -0.56412882 2.3352001
0.7265662 -0.57706732 2.4333999
0.70494902 -0.54943466 2.3610001
0.70709878 -0.5406149 2.3682001
0.72528231 -0.54375201 2.4291
0.70739734 -0.5198437 2.3692
0.72793967 -0.52413499 2.438
0.71948981 -0.50737166 2.4096999
0.72441643 -0.50009346 2.4261999
0.72035575 -0.48659816 2.4126
0.73143309 -0.48322442 2.4497001
0.72674537 -0.46934053 2.434
0.71981829 -0.45418286 2.4108
0.72740221 -0.44817141 2.4361999
0.72653639 -0.43685412 2.4333
0.71417516 -0.41882122 2.3919001
0.72032583 -0.41173661 2.4124999
0.74036062 -0.41219944 2.4796
0.74050993 -0.40129134 2.4800999
0.72558087 -0.38243151 2.4301
0.7490195 -0.38366774 2.5086
0.71545899 -0.35585779 2.3961999
0.72922361 -0.3518804 2.4423001
0.73656869 -0.34449199 2.4669001
0.75185603 -0.34048221 2.5181
0.73725539 -0.32292733 2.4691999
0.72808897 -0.30810547 2.4384999
0.7367478 -0.30083427 2.4675
0.74101752 -0.29157898 2.4818001
0.74716824 -0.28290915 2.5023999
0.73662835 -0.26798469 2.4670999
0.72650647 -0.253519 2.4331999
0.74110711 -0.24761391 2.4821
0.72095287 -0.23017918 2.4145999
0.72462541 -0.22059627 2.4268999
0.74271941 -0.21508059 2.4875
0.74024117 -0.2033757 2.4791999
0.75024366 -0.19498813 2.5127001
0.74167436 -0.18175247 2.484
0.73561323 -0.16934861 2.4637001
0.73901707 -0.15916316 2.4751
0.74636215 -0.14966701 2.4997001
0.75042278 -0.13934295 2.5132999
0.74015164 -0.12644984 2.4789
0.7541849 -0.11765314 2.5258999
0.74845219 -0.10564974 2.5067
0.7394948 -0.093409188 2.4767001
0.75764847 -0.084456667 2.5374999
0.73352319 -0.070879862 2.4567001
0.74319714 -0.060783558 2.4891
0.74555594 -0.049910363 2.497
0.74050993 -0.038581353 2.4800999
0.73507577 -0.027387673 2.4619
0.73713601 -0.0165233 2.4688001
0.74050993 -0.0056077163 2.4800999
0.7360611 0.0053511527 2.4651999
0.73713601 0.016300101 2.4688001
0.75036305 0.027730048 2.5130999
0.71841496 0.037212651 2.4061
0.62642229 0.041745424 2.098
0.69187111 0.056376282 2.3171999
0.75496125 0.072722815 2.5285001
0.69067681 0.07678207 2.3132
0.6749118 0.085047036 2.2604001
0.77123386 0.10863202 2.5829999
0.70554614 0.10985184 2.3629999
0.74328673 0.12676038 2.4893999
0.68652654 0.12727043 2.2993
0.67380702 0.13491361 2.2567
0.67037332 0.14417627 2.2451999
0.66031116 0.15181306 2.2114999
0.66658139 0.16314857 2.2325001
0.65063715 0.16890341 2.1791
0.64597934 0.17728236 2.1635001
0.63191617 0.18280225 2.1164
0.67046297 0.20390469 2.2455001
0.64580011 0.20598955 2.1629
0.623317 0.20806991 2.0876
0.61997294 0.21615572 2.0764
0.61179179 0.22238404 2.049
0.60253578 0.22796279 2.0179999
0.58253092 0.22904053 1.951
0.59208548 0.24158542 1.983
0.59551919 0.25182557 1.9945
0.5715133 0.25015712 1.9141001
0.57673842 0.2610046 1.9316
0.57408106 0.26832297 1.9227
0.56022692 0.27016291 1.8763
0.54019219 0.26851931 1.8092
0.54099834 0.27694997 1.8119
0.54046088 0.28469676 1.8101
0.53105557 0.28762469 1.7786
0.52409869 0.29163584 1.7553
0.51054311 0.29167068 1.7099
0.51893324 0.30416632 1.738
0.50666153 0.3044937 1.6969
0.5006302 0.30829969 1.6767
0.48937374 0.30863136 1.6390001
0.48450685 0.31275341 1.6227
0.46265075 0.3055121 1.5495
0.46733847 0.31554425 1.5652
0.46996599 0.32429391 1.574
0.45426065 0.32019913 1.5214
0.44378045 0.31939879 1.4863
0.44118279 0.32407758 1.4776
0.44578096 0.33407184 1.493
0.43900317 0.33550853 1.4703
0.41266835 0.32150725 1.3821
0.41024983 0.32571226 1.374
0.42419356 0.34307888 1.4207
0.41392237 0.34091553 1.3863
0.39982939 0.33524281 1.3391
0.41019014 0.35001829 1.3738
0.3848705 0.33412537 1.289
0.38448235 0.33949518 1.2877001
0.38842359 0.34874055 1.3009
0.36271581 0.33104289 1.2148
0.36417884 0.3377836 1.2197
0.36146176 0.34062853 1.2106
0.3556096 0.34039187 1.191
0.36435798 0.35417399 1.2203
0.3423526 0.33786511 1.1466
0.33993408 0.34052387 1.1385
0.34715977 0.3529149 1.1627001
0.3269757 0.33724946 1.0951
0.31613722 0.33076277 1.0588
0.71106935 -0.75394648 2.3462
0.7088266 -0.74120355 2.3388
0.71734291 -0.73961931 2.3669
0.69403666 -0.70544052 2.29
0.72210121 -0.72340715 2.3826001
0.71488804 -0.70572728 2.3587999
0.71779758 -0.69810337 2.3684001
0.71091783 -0.68101674 2.3457
0.71885836 -0.67811161 2.3719001
0.72849607 -0.67655045 2.4037001
0.73307246 -0.67008096 2.4188001
0.73504233 -0.66113323 2.4252999
0.73416346 -0.64960724 2.4224
0.71991909 -0.62647623 2.3754001
0.74083114 -0.63384092 2.4444001
0.74480134 -0.62634671 2.4575
0.72549564 -0.59950268 2.3938
0.73822469 -0.59922624 2.4358001
0.73437566 -0.58536333 2.4231
0.73610318 -0.57597649 2.4288001
0.73655778 -0.56556165 2.4303
0.75428754 -0.56814557 2.4888
0.73016292 -0.5392974 2.4092
0.74146754 -0.53680474 2.4465001
0.73880053 -0.5240705 2.4377
0.74074012 -0.51461476 2.4440999
0.73289061 -0.49844453 2.4182
0.74946862 -0.49876007 2.4728999
0.77789688 -0.50630367 2.5667
0.76453137 -0.48642498 2.5225999
0.73137522 -0.45463499 2.4131999
0.75080216 -0.45573232 2.4772999
0.75477248 -0.44710541 2.4904001
0.74746841 -0.43184862 2.4663
0.76665288 -0.43172184 2.5295999
0.75210541 -0.41253194 2.4816
0.76425856 -0.4080224 2.5216999
0.77344173 -0.40161526 2.552
0.7520448 -0.37950775 2.4814
0.76971394 -0.37716886 2.5397
0.75562108 -0.35921392 2.4932001
0.75013542 -0.34563708 2.4751
0.7701382 -0.34359214 2.5411
0.75813651 -0.3271516 2.5014999
0.75292367 -0.3138923 2.4842999
0.76268262 -0.30680829 2.5165
0.76931989 -0.29822871 2.5383999
0.76980484 -0.28716001 2.54
0.76301605 -0.27347019 2.5176001
0.77686644 -0.26707432 2.5632999
0.75701523 -0.24918015 2.4978001
0.75995499 -0.23903516 2.5074999
0.75940949 -0.22775891 2.5057001
0.74989295 -0.21393925 2.4742999
0.75734854 -0.20499174 2.4988999
0.75192356 -0.19252816 2.4809999
0.7696836 -0.18582068 2.5395999
0.76316756 -0.17308792 2.5181
0.77232033 -0.16387033 2.5483
0.76471323 -0.15107405 2.5232
0.76944119 -0.14075673 2.5388
0.77638155 -0.13067351 2.5617001
0.77292645 -0.11878966 2.5502999
0.78035176 -0.10851994 2.5748
0.76456171 -0.095144086 2.5227001
0.77177483 -0.084756218 2.5465
0.7838977 -0.074624807 2.5864999
0.77253252 -0.062246308 2.549
0.77301741 -0.05098173 2.5506001
0.77895761 -0.039982982 2.5702
0.75734854 -0.027799282 2.4988999
0.76998669 -0.017003847 2.5406001
0.74092203 -0.0055276742 2.4447
0.75246906 0.0053893565 2.4828
0.75346923 0.016414322 2.4861
0.71810067 0.026144434 2.3694
0.78950459 0.040288832 2.605
0.84393644 0.055407204 2.7846
0.71958572 0.057765499 2.3743
0.73025382 0.069300219 2.4094999
0.7164337 0.078464955 2.3638999
0.71882796 0.089238428 2.3717999
0.83902663 0.1164293 2.7684
0.76310694 0.11705288 2.5179
0.69485497 0.11674441 2.2927001
0.70991766 0.12965611 2.3424001
0.68952084 0.13601363 2.2751
0.70749307 0.14990428 2.3343999
0.68606585 0.15539645 2.2637
0.67257905 0.16217661 2.2191999
0.67412472 0.17240688 2.2242999
0.68082273 0.18407539 2.2464001
0.64966679 0.18515162 2.1436
0.66500229 0.19924633 2.1942
0.65594041 0.20612289 2.1643
0.65609193 0.21576439 2.1647999
0.63208854 0.21711345 2.0855999
0.64445394 0.23078448 2.1264
0.62830019 0.23418717 2.0731001
0.62957311 0.24386773 2.0773001
0.6055091 0.24340065 1.9979
0.59084034 0.24614388 1.9495
0.58580935 0.25261411 1.9329
0.58347571 0.26013982 1.9252
0.58174819 0.26787639 1.9195
0.56420028 0.26804629 1.8616
0.57050419 0.27938357 1.8824
0.54925877 0.2770111 1.8123
0.55898744 0.29009154 1.8444
0.54328829 0.28988871 1.7926
0.53949982 0.29575625 1.7801
0.535469 0.30137655 1.7668
0.50873792 0.29377073 1.6786
0.50728321 0.30034858 1.6738
0.50367665 0.30557838 1.6619
0.50513142 0.31384739 1.6667
0.48618934 0.30918777 1.6042
0.47518778 0.30914 1.5678999
0.47439981 0.31556439 1.5653
0.47579396 0.32344919 1.5699
0.45924619 0.31891531 1.5153
0.4456079 0.31596047 1.4703
0.45339689 0.3281132 1.4960001
0.45015398 0.33234888 1.4852999
0.43618235 0.32841182 1.4392
0.44042534 0.3380467 1.4532
0.42336237 0.33114082 1.3969001
0.42966628 0.34235445 1.4177001
0.41320941 0.33528402 1.3634
0.39890438 0.32950979 1.3162
0.38723606 0.32553378 1.2776999
0.38711485 0.3310926 1.2773
0.38420534 0.33422226 1.2677
0.38093215 0.33694518 1.2569
0.38008356 0.34175244 1.2541
0.37438577 0.34210384 1.2352999
0.36629376 0.34006581 1.2086
0.35359502 0.33344686 1.1667
0.36138397 0.34607643 1.1924
0.3614749 0.35144928 1.1927
0.3460182 0.341481 1.1417
0.35386777 0.35440218 1.1676
0.35547405 0.36120889 1.1729
0.33507726 0.34538281 1.1056
0.72985142 -0.76255858 2.3729999
0.72163939 -0.74358034 2.3462999
0.73929369 -0.75111878 2.4037001
0.74319977 -0.74437839 2.4164
0.74224633 -0.7327283 2.4133
0.73594123 -0.71589977 2.3928001
0.74000102 -0.7091862 2.4059999
0.75937772 -0.71681392 2.4690001
0.74246162 -0.69014776 2.414
0.7383402 -0.67567784 2.4006
0.73646408 -0.66334909 2.3945
0.75488722 -0.66906589 2.4544001
0.74722886 -0.65151125 2.4295001
0.75574839 -0.64804971 2.4572001
0.76008505 -0.64081615 2.4712999
0.74298447 -0.61569309 2.4157
0.76294547 -0.62124085 2.4806001
0.76131535 -0.60894358 2.4753001
0.74556798 -0.58560491 2.4240999
0.76931202 -0.59316945 2.5013001
0.75024301 -0.5676561 2.4393001
0.76439101 -0.56734663 2.4853001
0.77564782 -0.56452519 2.5218999
0.76645172 -0.54678822 2.4920001
0.76402193 -0.53404588 2.4841001
0.76113075 -0.52105772 2.4747
0.77005017 -0.51606798 2.5037
0.78502864 -0.51479453 2.5524001
0.75765526 -0.48592681 2.4633999
0.77792382 -0.48771691 2.5293
0.78306013 -0.47965387 2.546
0.77503276 -0.46356916 2.5199001
0.76088476 -0.44414312 2.4739001
0.79062629 -0.45011154 2.5706
0.76878911 -0.4266018 2.4995999
0.78112251 -0.42219025 2.5397
0.7831524 -0.4120028 2.5462999
0.7552563 -0.38644451 2.4556
0.80640435 -0.40099597 2.6219001
0.77810842 -0.3757135 2.5299001
0.78782743 -0.36905444 2.5615001
0.78269112 -0.35537037 2.5448
0.80037606 -0.35186723 2.6022999
0.77906179 -0.33127126 2.533
0.77820063 -0.31969181 2.5302
0.76595956 -0.30362621 2.4904001
0.78964204 -0.30163583 2.5674
0.7879197 -0.28962463 2.5618
0.78607428 -0.2776196 2.5558
0.78690475 -0.26657423 2.5585001
0.79001111 -0.25624314 2.5685999
0.80120647 -0.24832965 2.605
0.79831535 -0.23593047 2.5955999
0.79853064 -0.22448792 2.5962999
0.79696214 -0.2125634 2.5912001
0.79081076 -0.19952777 2.5711999
0.78244501 -0.18614262 2.5439999
0.79880744 -0.17852506 2.5971999
0.7975772 -0.16675767 2.5932
0.78192216 -0.15221764 2.5423
0.79111838 -0.14260849 2.5722001
0.78921145 -0.13089284 2.566
0.78875011 -0.11945108 2.5645001
0.79333287 -0.10871382 2.5794001
0.78979582 -0.096848808 2.5678999
0.81150991 -0.087818295 2.6385
0.80329794 -0.075354755 2.6118
0.77327961 -0.061396495 2.5142
0.78306013 -0.050889783 2.546
0.78825802 -0.03986942 2.5629001
0.78266031 -0.02830879 2.5446999
0.78407508 -0.017062074 2.5493
0.76789725 -0.0056452504 2.4967
0.76805097 0.0054206145 2.4972
0.7335422 0.015746815 2.385
0.81141764 0.029110428 2.6382
0.77026546 0.038732957 2.5044
0.79936111 0.051714182 2.599
0.71936351 0.056904238 2.3389001
0.81470859 0.076185666 2.6489
0.70143247 0.075699978 2.2806001
0.73188138 0.089531906 2.3796
0.72225457 0.098761357 2.3483
0.74000102 0.11185083 2.4059999
0.77669358 0.12858842 2.5253
0.73966277 0.13311559 2.4049001
0.76205349 0.14812577 2.4777
0.69706506 0.14553766 2.2664001
0.73624879 0.16432744 2.3938
0.714504 0.16976951 2.3231001
0.68310153 0.1721511 2.221
0.69915646 0.18627144 2.2732
0.68374747 0.19201837 2.2230999
0.67587382 0.19954599 2.1975
0.66123372 0.20475148 2.1499
0.629493 0.20399344 2.0467
0.63561356 0.21513554 2.0666001
0.64757782 0.22851615 2.1055
0.62460279 0.22940877 2.0308001
0.63367593 0.24187198 2.0603001
0.62558693 0.24779864 2.0339999
0.61737496 0.25344169 2.0072999
0.59726024 0.25379035 1.9419
0.5947997 0.26131541 1.9339
0.59999752 0.27224445 1.9507999
0.57732999 0.2702781 1.8771
0.57536161 0.27764708 1.8707
0.55764586 0.27713338 1.8131
0.55869156 0.28570336 1.8164999
0.55124849 0.28984019 1.7923
0.51501739 0.27821124 1.6745
0.53094923 0.29446816 1.7263
0.52046126 0.29615086 1.6921999
0.51870811 0.30262747 1.6865
0.5102194 0.30502677 1.6589
0.50025427 0.30627754 1.6265
0.49674803 0.31128863 1.6151
0.47850943 0.30675426 1.5558
0.49207303 0.32253978 1.5999
0.48921269 0.32771406 1.5906
0.4639616 0.31748414 1.5085
0.46712953 0.32638291 1.5188
0.4534429 0.3233538 1.4743
0.45873302 0.33373621 1.4915
0.45015195 0.33397967 1.4636
0.43289757 0.32741588 1.4075
0.43305135 0.33377209 1.408
0.42803803 0.33607581 1.3917
0.40986094 0.32770976 1.3326
0.4110297 0.33456686 1.3364
0.4050937 0.33557218 1.3171
0.39854255 0.335888 1.2958
0.40503219 0.3471936 1.3169
0.38722417 0.33750814 1.2589999
0.38144195 0.33796462 1.2402
0.36963147 0.33282638 1.2018
0.3748908 0.3429639 1.2189
0.37621334 0.34959474 1.2232
0.3581593 0.33797887 1.1645
0.36471042 0.34941605 1.1858
0.35572952 0.34593758 1.1566
0.34859401 0.34402144 1.1334
0.3477636 0.3482129 1.1307
0.33201626 0.33722931 1.0795
0.73966867 -0.76169103 2.3703001
0.77549279 -0.78756839 2.4851
0.76591265 -0.76696175 2.4544001
0.76269841 -0.75291145 2.4440999
0.7656942 -0.74499458 2.4537001
0.75377357 -0.7226913 2.4154999
0.75945306 -0.71735102 2.4337001
0.76787859 -0.71440423 2.4607
0.74537933 -0.68288606 2.3886001
0.77109277 -0.69549274 2.471
0.78775662 -0.69933534 2.5244
0.76394671 -0.66734856 2.4481001
0.7634474 -0.65607005 2.4465001
0.7756176 -0.65551341 2.4855001
0.7932176 -0.65912294 2.5418999
0.79118919 -0.64620119 2.5353999
0.78369987 -0.62895435 2.5114
0.78407431 -0.61811966 2.5125999
0.7862587 -0.60867542 2.5195999
0.777053 -0.59051341 2.4900999
0.77143604 -0.57528907 2.4721
0.79699343 -0.58302951 2.5539999
0.79352969 -0.56922609 2.5429001
0.80036372 -0.56276178 2.5648
0.79977083 -0.55098671 2.5629001
0.80747861 -0.54482925 2.5876
0.79858494 -0.5274871 2.5590999
0.79343599 -0.51281792 2.5425999
0.81621623 -0.51594961 2.6156001
0.79449701 -0.49093714 2.546
0.79783607 -0.48166969 2.5567
0.81106728 -0.47813907 2.5991001
0.78435516 -0.45125255 2.5135
0.80666727 -0.45263296 2.585
0.81038076 -0.4432078 2.5969
0.81577939 -0.43457487 2.6142001
0.81796372 -0.42412198 2.6212001
0.80835235 -0.40765837 2.5904
0.80947578 -0.39672893 2.5940001
0.79103321 -0.37645602 2.5349
0.81833822 -0.37782875 2.6224
0.80323458 -0.35944802 2.5739999
0.80123746 -0.3471753 2.5676
0.81187862 -0.34025601 2.6017001
0.796619 -0.32254732 2.5527999
0.80535662 -0.31464767 2.5808001
0.81371975 -0.30635881 2.6076
0.79727435 -0.28884453 2.5548999
0.80488849 -0.28017223 2.5792999
0.82223892 -0.27453446 2.6349001
0.83200628 -0.26597968 2.6661999
0.83715522 -0.25573665 2.6826999
0.80457646 -0.23435798 2.5783
0.80027014 -0.22173837 2.5645001
0.80117506 -0.210611 2.5674
0.82092828 -0.20414504 2.6307001
0.81456232 -0.19099376 2.6103001
0.80485731 -0.17728779 2.5792
0.82926017 -0.17088608 2.6573999
0.81244028 -0.15588193 2.6034999
0.82510984 -0.14659479 2.6441
0.81034958 -0.13246398 2.5968001
0.81031829 -0.12095091 2.5967
0.82414246 -0.11131007 2.641
0.81952399 -0.099047601 2.6262
0.81318927 -0.086733259 2.6059
0.82816797 -0.076569408 2.6538999
0.81025589 -0.063406251 2.5964999
0.80688572 -0.051683314 2.5857
0.80991268 -0.040375005 2.5954001
0.83868426 -0.029898496 2.6875999
0.78688288 -0.016876683 2.5216
0.8299467 -0.0060135811 2.6596
0.86240065 0.0059988829 2.7636001
0.88964319 0.018822892 2.8508999
0.82389277 0.029132495 2.6401999
0.74263322 0.036805898 2.3798001
0.88502479 0.056431938 2.8361001
0.79540199 0.062013421 2.5488999
0.83425307 0.07689032 2.6733999
0.72241187 0.076841816 2.3150001
0.78831834 0.095047697 2.5262001
0.80064458 0.10790445 2.5657001
0.75776792 0.11288752 2.4282999
0.82095945 0.13396049 2.6308
0.75146437 0.1332927 2.4080999
0.75892252 0.14539365 2.4319999
0.72366011 0.14891538 2.319
0.71751255 0.15784028 2.2993
0.7335211 0.17177919 2.3506
0.68097073 0.16914369 2.1822
0.71620196 0.18806598 2.2951
0.7063722 0.19551654 2.2636001
0.70000619 0.20369583 2.2432001
0.68792957 0.20995145 2.2045
0.6633395 0.21186732 2.1257
0.6507948 0.21710305 2.0855
0.67160898 0.23358463 2.1522
0.63915503 0.23137432 2.0481999
0.63697064 0.23962969 2.0411999
0.61940187 0.24181688 1.9849
0.62770253 0.25397199 2.0114999
0.61802882 0.25883505 1.9805
0.61166286 0.26485562 1.9601001
0.5944373 0.26583886 1.9049
0.58370256 0.26932779 1.8705
0.57867843 0.27522784 1.8544
0.5691607 0.27878416 1.8239
0.56466705 0.28460237 1.8095
0.54257345 0.28117231 1.7387
0.55099899 0.29336375 1.7657
0.54416496 0.29745325 1.7438
0.52300745 0.29331574 1.676
0.51002592 0.2932786 1.6344
0.52746987 0.31080037 1.6903
0.50606281 0.3053737 1.6217
0.50896496 0.31435314 1.631
0.49823016 0.31479874 1.5966001
0.49492234 0.31973752 1.586
0.49451667 0.32649845 1.5847
0.48300177 0.32575536 1.5477999
0.47869539 0.3296493 1.534
0.46206275 0.32475749 1.4807
0.45126557 0.32357755 1.4461
0.45029819 0.32927892 1.443
0.43425849 0.32371718 1.3916
0.43978187 0.33408025 1.4093
0.43519467 0.33677611 1.3946
0.4271436 0.33661199 1.3688
0.4201223 0.33704531 1.3463
0.40414497 0.32996699 1.2951
0.40114924 0.33321813 1.2855
0.39678043 0.33522412 1.2715
0.40926269 0.35158217 1.3115
0.38329956 0.33472174 1.2283
0.38598326 0.34254697 1.2369
0.37278324 0.3361266 1.1946
0.37125418 0.34002033 1.1897
0.36289105 0.33751449 1.1629
0.36423287 0.34393525 1.1672
0.36058185 0.34560859 1.1555001
0.36607403 0.35607159 1.1731
0.35065842 0.34605718 1.1237
0.32787824 0.32823235 1.0506999
0.77067041 -0.7823537 2.4346001
0.78269923 -0.78360689 2.4726
0.79102445 -0.78086728 2.4988999
0.79187912 -0.77062452 2.5016
0.77105021 -0.73955977 2.4358001
0.79919142 -0.75536275 2.5246999
0.78431362 -0.73032033 2.4777
0.790613 -0.72511721 2.4976001
0.77380419 -0.6988675 2.4445
0.77057534 -0.68516314 2.4342999
0.77864736 -0.68143916 2.4598
0.78323734 -0.67449057 2.4742999
0.81403756 -0.68961769 2.5716
0.81302458 -0.67737705 2.5683999
0.76968902 -0.63049591 2.4315
0.82533836 -0.66452646 2.6073
0.81891239 -0.64788759 2.5869999
0.81619006 -0.63430697 2.5783999
0.81726635 -0.62370145 2.5818
0.82350242 -0.61693132 2.6015
0.8285355 -0.60910219 2.6173999
0.83277726 -0.6005615 2.6308
0.8232491 -0.58216453 2.6006999
0.82385063 -0.57105577 2.6026001
0.817298 -0.55507141 2.5818999
0.82593983 -0.5493772 2.6092
0.82815564 -0.53925669 2.6162
0.82546502 -0.52594799 2.6077001
0.82141316 -0.51186633 2.5948999
0.83407515 -0.50807947 2.6349001
0.78884029 -0.46948054 2.4920001
0.82492685 -0.47940838 2.6059999
0.81612682 -0.46286827 2.5782001
0.83008659 -0.45916417 2.6222999
0.83657587 -0.45104149 2.6428001
0.82426208 -0.43286261 2.6039
0.82305926 -0.42070791 2.6001
0.83989966 -0.41755712 2.6533
0.8435083 -0.40754184 2.6647
0.82195133 -0.38561904 2.5966001
0.8157469 -0.37128761 2.5769999
0.83784205 -0.36961424 2.6468
0.83170098 -0.35526109 2.6273999
0.82688946 -0.34162921 2.6122
0.84230542 -0.33620584 2.6609001
0.83489817 -0.32156044 2.6375
0.83964634 -0.31163397 2.6524999
0.84610397 -0.30218506 2.6729
0.8527832 -0.29263136 2.694
0.82948518 -0.27302366 2.6204
0.83932984 -0.26451322 2.6515
0.85040909 -0.2560989 2.6865001
0.83809531 -0.24065709 2.6475999
0.84676874 -0.23129269 2.675
0.82252115 -0.21315403 2.5984001
0.84414136 -0.20693867 2.6666999
0.84835154 -0.19609365 2.6800001
0.84648383 -0.18381098 2.6740999
0.83898163 -0.17043595 2.6503999
0.84138739 -0.15914506 2.658
0.847022 -0.14835231 2.6758001
0.82692111 -0.13325463 2.6122999
0.83087796 -0.12225977 2.6248
0.84831983 -0.11294958 2.6798999
0.84512269 -0.10069199 2.6698
0.8437615 -0.088716947 2.6654999
0.84246373 -0.076785795 2.6614001
0.83910823 -0.064732254 2.6508
0.83752555 -0.052884601 2.6458001
0.83230251 -0.040902365 2.6293001
0.83822191 -0.029457962 2.648
0.82612979 -0.017466992 2.6098001
0.89956909 -0.0064255507 2.8418
0.81033397 0.0055567157 2.5599
0.84300178 0.017582955 2.6631
0.89472592 0.031188166 2.8264999
0.8527832 0.041665301 2.694
0.80789655 0.050782971 2.5522001
0.81479722 0.062624089 2.5739999
0.86088681 0.078219086 2.7196
0.92141104 0.096618213 2.9108
0.79941297 0.09501759 2.5253999
0.79333526 0.10540208 2.5062001
0.81891239 0.12026522 2.5869999
0.76661849 0.12331819 2.4217999
0.78827047 0.1378371 2.4902
0.79558277 0.15025407 2.5132999
0.7685495 0.15590844 2.4279001
0.75908464 0.16461575 2.398
0.76652354 0.17696047 2.4215
0.72837943 0.17835195 2.3010001
0.73395061 0.18999162 2.3185999
0.71638215 0.19547333 2.2630999
0.69697773 0.19993646 2.2018001
0.68938053 0.20740859 2.1777999
0.66870987 0.21055168 2.1125
0.65820044 0.21645761 2.0792999
0.65424365 0.22431593 2.0668001
0.67390132 0.2404906 2.1289001
0.65750408 0.24384424 2.0771
0.63661182 0.24500878 2.0111001
0.6285398 0.25070187 1.9856
0.63167363 0.26079541 1.9955
0.61245912 0.261437 1.9348
0.60062021 0.2647922 1.8974
0.59460574 0.27046528 1.8784
0.58396971 0.27380303 1.8448
0.59792954 0.28871945 1.8889
0.5777337 0.287056 1.8250999
0.57444161 0.29346257 1.8147
0.55000401 0.28867844 1.7375
0.54259676 0.2923871 1.7141
0.54797804 0.30295873 1.7311
0.51030874 0.28927708 1.6121
0.51746273 0.30057704 1.6346999
0.52920675 0.31480774 1.6718
0.51043534 0.3107875 1.6125
0.50521231 0.31468043 1.596
0.51265121 0.32649115 1.6195
0.4920122 0.32023507 1.5543
0.48121789 0.31994659 1.5202
0.48115456 0.32664075 1.52
0.47080344 0.32620504 1.4873
0.47162646 0.33337817 1.4899
0.45307669 0.3266091 1.4313
0.45041764 0.33099824 1.4229
0.43829384 0.32822505 1.3846
0.44354856 0.33836994 1.4012001
0.43721756 0.33966133 1.3812
0.42176995 0.33356544 1.3324
0.42218146 0.33980152 1.3336999
0.40632236 0.33272561 1.2836
0.40511951 0.33741239 1.2798001
0.40762025 0.34520197 1.2877001
0.38881722 0.33472174 1.2283
0.3954964 0.34600872 1.2494
0.38691795 0.34392059 1.2223001
0.38375241 0.34647948 1.2122999
0.37150198 0.34062001 1.1736
0.3664372 0.34110647 1.1576
0.35605437 0.33642623 1.1248
0.36738682 0.35227746 1.1605999
0.36099258 0.35120016 1.1404001
0.34681115 0.34225887 1.0956
0.81640768 -0.81718779 2.543
0.79171962 -0.78154695 2.4661
0.79441631 -0.77324265 2.4744999
0.81669658 -0.78365511 2.5439
0.82366318 -0.77896971 2.5655999
0.79541159 -0.74127102 2.4776001
0.78995383 -0.72527993 2.4605999
0.80587751 -0.72877532 2.5102
0.82494742 -0.73463285 2.5696001
0.80623066 -0.70683575 2.5113001
0.82770836 -0.7142396 2.5782001
0.82722676 -0.70240468 2.5767
0.82459426 -0.68878639 2.5685
0.84764498 -0.69633961 2.6403
0.82555735 -0.66679835 2.5715001
0.83586276 -0.66358346 2.6036
0.81762761 -0.63781989 2.5467999
0.85390532 -0.65433204 2.6598001
0.82677728 -0.62213123 2.5753
0.81891179 -0.60490811 2.5508001
0.85705149 -0.62124979 2.6696
0.84504455 -0.6008811 2.6322
0.83143234 -0.57972455 2.5897999
0.83274865 -0.56914681 2.5939
0.85881722 -0.57510811 2.6751001
0.84565449 -0.55461997 2.6341
0.87127364 -0.55939484 2.7139001
0.8381421 -0.52655303 2.6106999
0.85843194 -0.52744973 2.6738999
0.84453088 -0.50725025 2.6306
0.84825498 -0.49777746 2.6422
0.85178638 -0.48809144 2.6531999
0.86719638 -0.48495063 2.7012
0.85059851 -0.46392688 2.6494999
0.85583156 -0.45496684 2.6658001
0.86039031 -0.44551322 2.6800001
0.87499774 -0.4409982 2.7255001
0.85400158 -0.41862723 2.6601
0.86905843 -0.41401124 2.707
0.85891354 -0.39732158 2.6754
0.86302286 -0.38730901 2.6882
0.87303931 -0.37975252 2.7193999
0.8768276 -0.36929631 2.7312
0.86064714 -0.35060084 2.6808
0.87702024 -0.34516406 2.7318001
0.86793476 -0.32960707 2.7035
0.86754954 -0.31748483 2.7023001
0.85804671 -0.30216244 2.6726999
0.86302286 -0.29200134 2.6882
0.8524285 -0.27664953 2.6552
0.87031049 -0.27043897 2.7109001
0.86022985 -0.25543159 2.6795001
0.88074434 -0.24936497 2.7434001
0.85791832 -0.23105925 2.6723001
0.85692304 -0.21896194 2.6691999
0.8599087 -0.20785436 2.6784999
0.87223679 -0.1987936 2.7169001
0.8767634 -0.18772213 2.7309999
0.87095255 -0.17445506 2.7128999
0.86767793 -0.16182142 2.7026999
0.86135346 -0.1487515 2.6830001
0.87852913 -0.13959013 2.7365
0.87981331 -0.12764893 2.7405
0.86613697 -0.11370824 2.6979001
0.86588007 -0.10172161 2.6970999
0.86026192 -0.089186244 2.6796
0.84986019 -0.076376103 2.6472001
0.87933177 -0.06688609 2.7390001
0.86430699 -0.053812046 2.6921999
0.85827142 -0.0415884 2.6733999
0.84546191 -0.029296657 2.6335001
0.92729533 -0.019331619 2.8884001
0.89149922 -0.0062788064 2.7769001
0.89015085 0.0060186358 2.7727001
0.92951041 0.01911604 2.8952999
0.87775868 0.030168608 2.7341001
0.90145147 0.043426875 2.8079
0.89451694 0.055441026 2.7862999
0.94912606 0.071927689 2.9563999
0.98498636 0.088242382 3.0681
0.81027579 0.083775833 2.5239
0.85255694 0.099916346 2.6556001
0.82655257 0.10827874 2.5746
0.78240937 0.11329662 2.4370999
0.81053257 0.12855786 2.5246999
